ncols         426
nrows         32
xllcorner     200024
yllcorner     1164
cellsize      4.000000
NODATA_value  -9999
155.08 154.98 154.92 154.89 154.89 154.91 154.94 154.96 154.98 154.98 154.98 154.97 154.97 154.96 154.96 154.97 154.96 154.95 154.95 154.97 155.02 155.12 155.27 155.46 155.68 155.90 156.10 156.27 156.41 156.52 156.62 156.72 156.83 156.95 157.10 157.27 157.47 157.65 157.81 157.92 157.96 157.94 157.87 157.78 157.67 157.56 157.46 157.35 157.21 157.07 156.95 156.87 156.85 156.91 157.03 157.19 157.37 157.53 157.65 157.73 157.78 157.81 157.83 157.84 157.85 157.87 157.89 157.91 157.93 157.94 157.94 157.94 157.94 157.92 157.90 157.88 157.85 157.82 157.79 157.77 157.74 157.71 157.65 157.56 157.44 157.28 157.09 156.88 156.66 156.45 156.26 156.05 155.82 155.61 155.40 155.23 155.10 155.01 154.96 154.93 154.92 154.92 154.92 154.92 154.93 154.95 154.98 155.01 155.06 155.13 155.21 155.31 155.41 155.52 155.62 155.71 155.79 155.85 155.92 155.99 156.07 156.17 156.31 156.49 156.67 156.85 156.99 157.07 157.07 157.01 156.90 156.76 156.62 156.49 156.39 156.29 156.20 156.12 156.03 155.93 155.83 155.70 155.53 155.37 155.23 155.16 155.18 155.32 155.54 155.84 156.17 156.51 156.82 157.12 157.42 157.72 158.02 158.31 158.58 158.81 159.02 159.21 159.38 159.54 159.68 159.81 159.93 160.02 160.10 160.18 160.26 160.34 160.45 160.57 160.70 160.81 160.92 160.99 161.04 161.06 161.07 161.06 161.02 160.95 160.84 160.67 160.44 160.19 159.95 159.74 159.60 159.50 159.43 159.38 159.37 159.40 159.47 159.61 159.85 160.14 160.43 160.67 160.82 160.84 160.74 160.57 160.35 160.08 159.81 159.54 159.24 158.92 158.58 158.23 157.88 157.55 157.21 156.86 156.51 156.17 155.87 155.61 155.40 155.24 155.12 155.03 154.94 154.84 154.73 154.60 154.47 154.35 154.23 154.14 154.08 154.04 154.05 154.07 154.09 154.11 154.11 154.10 154.09 154.08 154.05 154.01 153.95 153.85 153.71 153.54 153.36 153.20 153.07 152.99 152.95 152.95 152.96 152.99 153.01 153.02 153.02 153.02 153.02 153.02 153.01 153.02 153.02 153.04 153.05 153.07 153.07 153.05 153.02 152.97 152.90 152.82 152.73 152.65 152.58 152.49 152.40 152.31 152.22 152.15 152.11 152.08 152.08 152.09 152.11 152.13 152.17 152.20 152.25 152.30 152.36 152.43 152.50 152.57 152.67 152.78 152.89 152.98 153.06 153.11 153.11 153.09 153.05 153.01 152.99 152.98 153.00 153.04 153.08 153.14 153.25 153.39 153.58 153.78 153.99 154.19 154.37 154.53 154.66 154.77 154.86 154.94 155.02 155.11 155.20 155.31 155.45 155.62 155.81 156.00 156.19 156.36 156.54 156.71 156.89 157.06 157.23 157.40 157.56 157.73 157.90 158.14 158.51 159.05 159.84 160.69 161.39 161.84 162.17 162.41 162.62 162.83 163.06 163.32 163.59 163.86 164.14 164.39 164.67 164.87 165.06 165.24 165.42 165.60 165.77 165.93 166.06 166.22 166.30 166.37 166.44 166.49 166.54 166.59 166.60 166.59 166.55 166.43 166.18 165.86 165.51 165.19 164.92 164.76 164.67 164.65 164.66 164.67 164.67 164.68 164.68 164.69 164.70 164.70 164.71 164.72 164.73 164.74 164.75 164.77 164.79 164.81 164.85 164.89 164.93 164.97 164.98 164.93 164.80 164.55 164.17 163.73 163.30 163.04 162.97 163.21 163.49 163.77 164.04 164.30 164.55 164.81
155.13 155.02 154.96 154.92 154.92 154.93 154.96 154.98 154.99 154.99 154.98 154.97 154.96 154.96 154.96 154.96 154.96 154.96 154.98 155.01 155.07 155.17 155.33 155.54 155.76 155.99 156.19 156.37 156.50 156.61 156.70 156.79 156.88 157.00 157.14 157.32 157.51 157.69 157.85 157.95 157.99 157.97 157.91 157.82 157.71 157.60 157.50 157.39 157.25 157.11 156.99 156.91 156.89 156.95 157.08 157.25 157.44 157.61 157.74 157.82 157.87 157.89 157.91 157.91 157.92 157.94 157.95 157.96 157.97 157.98 157.98 157.98 157.98 157.98 157.98 157.97 157.96 157.94 157.92 157.91 157.89 157.85 157.80 157.71 157.58 157.41 157.21 156.99 156.77 156.55 156.34 156.13 155.90 155.68 155.47 155.29 155.15 155.06 155.01 154.98 154.96 154.96 154.95 154.94 154.92 154.91 154.91 154.93 154.96 155.02 155.11 155.22 155.34 155.46 155.58 155.68 155.76 155.83 155.90 155.98 156.06 156.17 156.31 156.48 156.67 156.84 156.98 157.06 157.06 157.00 156.89 156.75 156.61 156.48 156.38 156.28 156.19 156.10 156.01 155.92 155.82 155.68 155.51 155.34 155.21 155.14 155.17 155.31 155.55 155.86 156.21 156.57 156.91 157.22 157.54 157.87 158.19 158.49 158.78 159.02 159.23 159.43 159.59 159.75 159.89 160.01 160.12 160.20 160.27 160.34 160.40 160.48 160.58 160.70 160.83 160.95 161.06 161.14 161.18 161.21 161.22 161.21 161.17 161.10 160.99 160.81 160.58 160.34 160.09 159.88 159.73 159.63 159.56 159.52 159.51 159.54 159.61 159.75 159.99 160.27 160.56 160.80 160.95 160.97 160.88 160.70 160.48 160.21 159.94 159.67 159.37 159.06 158.72 158.37 158.02 157.68 157.34 156.99 156.63 156.28 155.97 155.70 155.49 155.33 155.21 155.11 155.03 154.94 154.83 154.71 154.60 154.49 154.39 154.31 154.25 154.23 154.23 154.24 154.27 154.28 154.27 154.25 154.23 154.20 154.16 154.10 154.02 153.92 153.77 153.60 153.42 153.26 153.13 153.04 153.01 153.00 153.02 153.04 153.07 153.07 153.07 153.08 153.08 153.08 153.08 153.07 153.08 153.08 153.09 153.09 153.08 153.06 153.02 152.97 152.91 152.84 152.76 152.69 152.62 152.54 152.45 152.37 152.30 152.24 152.20 152.19 152.19 152.20 152.23 152.26 152.29 152.32 152.36 152.40 152.45 152.50 152.55 152.62 152.71 152.80 152.90 152.99 153.06 153.10 153.11 153.09 153.05 153.02 153.00 153.00 153.02 153.05 153.09 153.14 153.21 153.33 153.48 153.66 153.86 154.05 154.24 154.40 154.55 154.67 154.79 154.90 155.01 155.11 155.23 155.37 155.52 155.68 155.86 156.02 156.19 156.35 156.52 156.67 156.83 156.99 157.15 157.31 157.46 157.61 157.76 157.93 158.16 158.55 159.26 160.15 160.96 161.54 161.94 162.24 162.49 162.70 162.92 163.16 163.40 163.64 163.91 164.17 164.41 164.64 164.85 165.04 165.24 165.44 165.64 165.84 166.02 166.15 166.24 166.31 166.37 166.41 166.45 166.47 166.46 166.43 166.31 166.02 165.66 165.30 165.01 164.80 164.70 164.66 164.66 164.67 164.67 164.68 164.68 164.68 164.68 164.69 164.69 164.70 164.70 164.71 164.72 164.73 164.74 164.75 164.77 164.79 164.81 164.84 164.86 164.86 164.81 164.67 164.42 164.06 163.60 163.18 162.90 162.86 163.03 163.30 163.57 163.84 164.10 164.35 164.60 164.84
155.21 155.10 155.02 154.99 154.97 154.98 154.99 155.01 155.01 155.00 154.98 154.97 154.95 154.94 154.94 154.96 154.97 154.98 155.01 155.06 155.13 155.24 155.40 155.60 155.82 156.04 156.25 156.42 156.55 156.66 156.76 156.85 156.95 157.06 157.21 157.39 157.58 157.76 157.92 158.03 158.07 158.05 157.99 157.89 157.79 157.68 157.58 157.46 157.32 157.18 157.06 156.98 156.95 157.01 157.14 157.31 157.49 157.65 157.79 157.87 157.91 157.94 157.96 157.97 157.98 157.99 158.01 158.03 158.04 158.05 158.06 158.07 158.08 158.09 158.10 158.10 158.09 158.08 158.06 158.05 158.04 158.01 157.95 157.86 157.73 157.55 157.35 157.12 156.89 156.66 156.45 156.22 155.99 155.77 155.56 155.38 155.24 155.14 155.08 155.05 155.03 155.02 155.00 154.97 154.93 154.89 154.87 154.86 154.87 154.93 155.02 155.13 155.27 155.40 155.53 155.64 155.73 155.80 155.88 155.96 156.05 156.15 156.30 156.47 156.66 156.84 156.98 157.06 157.06 157.00 156.88 156.74 156.60 156.46 156.36 156.26 156.16 156.07 155.97 155.88 155.78 155.65 155.49 155.34 155.21 155.16 155.20 155.35 155.61 155.93 156.29 156.66 157.00 157.32 157.66 157.99 158.33 158.65 158.93 159.18 159.40 159.59 159.76 159.91 160.05 160.17 160.28 160.36 160.42 160.48 160.54 160.62 160.72 160.84 160.97 161.10 161.21 161.29 161.34 161.36 161.37 161.35 161.31 161.24 161.14 160.97 160.76 160.53 160.29 160.09 159.95 159.85 159.77 159.72 159.70 159.72 159.77 159.90 160.12 160.39 160.66 160.89 161.02 161.03 160.93 160.76 160.53 160.27 160.00 159.73 159.45 159.14 158.82 158.48 158.15 157.82 157.47 157.11 156.74 156.39 156.06 155.79 155.58 155.42 155.30 155.21 155.13 155.04 154.95 154.85 154.77 154.68 154.60 154.54 154.50 154.47 154.47 154.48 154.49 154.49 154.47 154.42 154.38 154.32 154.25 154.16 154.07 153.95 153.80 153.62 153.44 153.28 153.15 153.07 153.03 153.02 153.04 153.07 153.09 153.10 153.10 153.10 153.10 153.10 153.10 153.10 153.10 153.10 153.09 153.09 153.08 153.06 153.02 152.98 152.92 152.86 152.80 152.74 152.68 152.61 152.54 152.47 152.41 152.36 152.33 152.32 152.33 152.35 152.38 152.41 152.44 152.46 152.49 152.52 152.56 152.59 152.64 152.69 152.77 152.85 152.93 153.01 153.07 153.11 153.11 153.09 153.06 153.03 153.00 153.00 153.02 153.05 153.09 153.14 153.20 153.29 153.42 153.59 153.77 153.96 154.15 154.33 154.48 154.63 154.77 154.91 155.05 155.18 155.32 155.47 155.61 155.76 155.91 156.05 156.20 156.35 156.50 156.64 156.79 156.94 157.09 157.24 157.37 157.50 157.64 157.79 157.96 158.22 158.90 159.74 160.65 161.31 161.75 162.03 162.37 162.61 162.82 163.03 163.23 163.44 163.67 163.89 164.12 164.35 164.57 164.78 164.97 165.18 165.41 165.65 165.86 166.01 166.13 166.21 166.27 166.31 166.34 166.36 166.33 166.25 165.98 165.58 165.20 164.93 164.77 164.70 164.68 164.68 164.68 164.68 164.68 164.68 164.68 164.68 164.69 164.69 164.69 164.69 164.70 164.70 164.71 164.72 164.73 164.74 164.75 164.76 164.78 164.79 164.77 164.72 164.58 164.34 163.96 163.52 163.08 162.80 162.75 162.89 163.13 163.39 163.65 163.91 164.16 164.39 164.63 164.86
155.29 155.18 155.11 155.07 155.04 155.04 155.04 155.03 155.03 155.01 154.99 154.96 154.94 154.93 154.93 154.95 154.97 155.00 155.05 155.11 155.20 155.32 155.48 155.67 155.87 156.08 156.28 156.45 156.58 156.70 156.80 156.91 157.02 157.14 157.29 157.47 157.67 157.86 158.02 158.13 158.17 158.15 158.09 157.99 157.89 157.78 157.68 157.56 157.42 157.28 157.15 157.07 157.04 157.09 157.21 157.36 157.53 157.69 157.81 157.89 157.93 157.97 157.99 158.00 158.02 158.05 158.07 158.10 158.13 158.15 158.17 158.19 158.21 158.22 158.23 158.24 158.24 158.23 158.21 158.21 158.19 158.16 158.11 158.01 157.88 157.70 157.49 157.25 157.01 156.78 156.56 156.34 156.11 155.88 155.67 155.49 155.35 155.25 155.18 155.15 155.13 155.11 155.07 155.02 154.96 154.89 154.83 154.80 154.80 154.84 154.93 155.05 155.20 155.35 155.48 155.60 155.69 155.77 155.85 155.93 156.02 156.13 156.28 156.46 156.66 156.84 156.98 157.06 157.06 156.99 156.88 156.73 156.58 156.44 156.32 156.22 156.12 156.01 155.92 155.82 155.73 155.61 155.47 155.34 155.25 155.21 155.27 155.44 155.70 156.02 156.38 156.75 157.11 157.43 157.77 158.11 158.45 158.78 159.07 159.32 159.54 159.73 159.89 160.05 160.18 160.31 160.41 160.49 160.55 160.61 160.68 160.76 160.86 160.99 161.12 161.25 161.36 161.45 161.49 161.52 161.52 161.50 161.46 161.39 161.29 161.14 160.96 160.75 160.55 160.37 160.23 160.13 160.04 159.97 159.93 159.93 159.96 160.07 160.26 160.50 160.74 160.94 161.05 161.04 160.93 160.76 160.53 160.27 160.01 159.75 159.48 159.19 158.89 158.58 158.26 157.94 157.60 157.23 156.85 156.49 156.16 155.88 155.67 155.51 155.39 155.31 155.23 155.17 155.09 155.03 154.97 154.92 154.88 154.84 154.81 154.78 154.77 154.76 154.75 154.73 154.68 154.61 154.53 154.43 154.33 154.21 154.09 153.95 153.79 153.61 153.43 153.27 153.14 153.06 153.02 153.01 153.03 153.06 153.08 153.09 153.10 153.10 153.10 153.10 153.10 153.09 153.09 153.09 153.08 153.08 153.07 153.05 153.02 152.99 152.94 152.89 152.85 152.80 152.75 152.70 152.65 152.59 152.54 152.50 152.48 152.48 152.49 152.51 152.54 152.57 152.59 152.61 152.64 152.66 152.68 152.71 152.75 152.79 152.84 152.91 152.98 153.04 153.08 153.11 153.11 153.09 153.06 153.03 153.01 153.01 153.02 153.05 153.08 153.13 153.19 153.28 153.39 153.55 153.73 153.93 154.13 154.31 154.49 154.65 154.82 154.98 155.15 155.30 155.45 155.59 155.72 155.84 155.96 156.08 156.21 156.35 156.48 156.62 156.76 156.90 157.04 157.17 157.30 157.41 157.53 157.67 157.83 158.06 158.67 159.43 160.37 161.10 161.61 161.94 162.32 162.56 162.78 162.99 163.17 163.32 163.44 163.54 163.89 164.09 164.29 164.49 164.70 164.90 165.13 165.39 165.63 165.81 165.95 166.06 166.13 166.19 166.23 166.24 166.20 166.02 165.63 165.23 164.95 164.80 164.73 164.70 164.69 164.70 164.70 164.70 164.70 164.70 164.69 164.69 164.69 164.69 164.69 164.69 164.69 164.69 164.70 164.71 164.72 164.72 164.73 164.74 164.74 164.72 164.66 164.53 164.29 163.94 163.48 163.05 162.75 162.68 162.79 163.01 163.24 163.48 163.72 163.97 164.21 164.43 164.65 164.87
155.38 155.28 155.21 155.16 155.13 155.10 155.09 155.07 155.06 155.03 154.99 154.96 154.93 154.91 154.91 154.94 154.98 155.03 155.10 155.18 155.28 155.40 155.55 155.73 155.92 156.11 156.29 156.46 156.60 156.72 156.84 156.96 157.09 157.22 157.38 157.57 157.77 157.97 158.13 158.24 158.29 158.27 158.21 158.11 158.00 157.89 157.79 157.67 157.53 157.39 157.26 157.18 157.14 157.18 157.28 157.41 157.56 157.71 157.82 157.89 157.94 157.98 158.01 158.03 158.06 158.09 158.14 158.18 158.23 158.27 158.30 158.33 158.35 158.37 158.38 158.39 158.39 158.38 158.37 158.36 158.34 158.31 158.26 158.17 158.03 157.85 157.63 157.39 157.14 156.91 156.69 156.46 156.23 156.01 155.80 155.62 155.47 155.37 155.31 155.27 155.24 155.21 155.17 155.10 155.01 154.91 154.82 154.76 154.74 154.77 154.86 154.99 155.14 155.29 155.44 155.56 155.65 155.74 155.82 155.90 156.00 156.11 156.26 156.45 156.65 156.84 156.99 157.07 157.07 156.99 156.87 156.71 156.56 156.41 156.29 156.18 156.07 155.96 155.86 155.77 155.68 155.59 155.48 155.37 155.31 155.30 155.38 155.55 155.81 156.14 156.50 156.87 157.22 157.55 157.89 158.23 158.57 158.89 159.19 159.44 159.66 159.85 160.01 160.16 160.30 160.42 160.53 160.61 160.68 160.74 160.81 160.89 161.00 161.13 161.27 161.40 161.51 161.60 161.65 161.67 161.67 161.64 161.60 161.53 161.45 161.33 161.17 161.00 160.83 160.67 160.55 160.44 160.34 160.26 160.20 160.16 160.17 160.24 160.40 160.59 160.79 160.96 161.04 161.01 160.90 160.72 160.49 160.24 159.98 159.74 159.49 159.23 158.96 158.67 158.38 158.07 157.73 157.36 156.98 156.60 156.26 155.98 155.77 155.61 155.51 155.43 155.37 155.31 155.26 155.22 155.20 155.19 155.18 155.17 155.14 155.12 155.09 155.07 155.03 154.98 154.90 154.80 154.68 154.55 154.40 154.25 154.09 153.94 153.76 153.58 153.40 153.24 153.12 153.03 152.99 152.99 153.01 153.03 153.06 153.07 153.07 153.07 153.07 153.07 153.07 153.07 153.07 153.07 153.06 153.06 153.05 153.03 153.02 152.99 152.96 152.93 152.89 152.86 152.83 152.80 152.76 152.72 152.69 152.66 152.65 152.65 152.66 152.68 152.70 152.72 152.74 152.76 152.78 152.79 152.81 152.83 152.85 152.88 152.92 152.96 153.01 153.05 153.08 153.10 153.10 153.08 153.05 153.02 153.01 153.01 153.02 153.04 153.07 153.11 153.17 153.26 153.38 153.54 153.72 153.92 154.13 154.33 154.52 154.71 154.89 155.08 155.26 155.43 155.58 155.71 155.82 155.92 156.01 156.11 156.22 156.34 156.47 156.60 156.73 156.86 156.99 157.12 157.23 157.33 157.44 157.56 157.70 157.95 158.56 159.24 160.13 160.88 161.44 161.82 162.23 162.50 162.73 162.95 163.13 163.29 163.42 163.52 163.80 163.96 164.13 164.30 164.49 164.68 164.89 165.12 165.37 165.58 165.76 165.89 165.99 166.06 166.12 166.13 166.04 165.74 165.33 165.02 164.84 164.76 164.73 164.72 164.72 164.72 164.72 164.72 164.71 164.71 164.70 164.70 164.69 164.69 164.69 164.69 164.69 164.69 164.69 164.70 164.71 164.71 164.71 164.71 164.69 164.63 164.51 164.29 163.94 163.50 163.04 162.72 162.64 162.74 162.93 163.13 163.35 163.57 163.80 164.02 164.24 164.46 164.66 164.87
155.47 155.38 155.31 155.26 155.22 155.18 155.15 155.12 155.09 155.05 155.01 154.96 154.93 154.90 154.90 154.93 154.99 155.06 155.15 155.25 155.37 155.49 155.63 155.79 155.96 156.14 156.30 156.46 156.61 156.75 156.88 157.02 157.16 157.31 157.48 157.67 157.88 158.08 158.25 158.36 158.41 158.40 158.33 158.24 158.13 158.01 157.91 157.79 157.65 157.51 157.39 157.30 157.26 157.28 157.36 157.47 157.60 157.73 157.83 157.89 157.95 157.98 158.02 158.05 158.09 158.14 158.20 158.26 158.33 158.39 158.44 158.47 158.50 158.52 158.53 158.54 158.53 158.52 158.51 158.50 158.49 158.46 158.40 158.31 158.18 157.99 157.77 157.52 157.28 157.04 156.82 156.60 156.37 156.14 155.94 155.76 155.61 155.51 155.44 155.40 155.36 155.33 155.27 155.19 155.07 154.95 154.83 154.74 154.71 154.73 154.81 154.94 155.10 155.26 155.41 155.53 155.63 155.71 155.79 155.88 155.98 156.09 156.25 156.44 156.65 156.84 156.99 157.07 157.07 156.99 156.87 156.71 156.54 156.39 156.27 156.16 156.04 155.93 155.83 155.74 155.67 155.58 155.50 155.43 155.39 155.41 155.51 155.69 155.96 156.28 156.63 157.00 157.34 157.67 158.01 158.35 158.69 159.01 159.30 159.55 159.76 159.95 160.12 160.27 160.40 160.53 160.64 160.73 160.80 160.86 160.93 161.02 161.13 161.26 161.40 161.54 161.65 161.74 161.79 161.81 161.80 161.78 161.73 161.68 161.60 161.51 161.39 161.25 161.12 160.99 160.87 160.77 160.66 160.55 160.47 160.41 160.39 160.43 160.54 160.69 160.85 160.97 161.02 160.97 160.85 160.67 160.44 160.20 159.96 159.73 159.50 159.26 159.02 158.76 158.49 158.20 157.88 157.50 157.12 156.74 156.39 156.11 155.90 155.75 155.64 155.57 155.52 155.48 155.44 155.43 155.44 155.46 155.48 155.49 155.48 155.45 155.41 155.36 155.30 155.22 155.11 154.98 154.82 154.64 154.46 154.27 154.09 153.91 153.73 153.55 153.37 153.21 153.08 153.00 152.96 152.96 152.97 153.00 153.03 153.04 153.04 153.04 153.04 153.04 153.04 153.04 153.04 153.04 153.04 153.03 153.03 153.02 153.01 153.00 152.98 152.96 152.94 152.92 152.91 152.89 152.87 152.84 152.83 152.81 152.81 152.81 152.82 152.83 152.84 152.86 152.87 152.88 152.89 152.90 152.91 152.92 152.93 152.95 152.97 152.99 153.02 153.04 153.06 153.06 153.06 153.04 153.01 152.99 152.98 152.99 153.00 153.01 153.04 153.08 153.14 153.23 153.35 153.52 153.71 153.93 154.15 154.36 154.56 154.76 154.97 155.17 155.36 155.54 155.69 155.81 155.90 155.98 156.04 156.12 156.21 156.32 156.44 156.57 156.70 156.82 156.95 157.06 157.16 157.26 157.35 157.46 157.60 157.84 158.45 159.13 159.96 160.68 161.26 161.68 162.11 162.40 162.65 162.87 163.07 163.23 163.37 163.48 163.58 163.89 164.05 164.21 164.36 164.53 164.71 164.90 165.12 165.34 165.54 165.70 165.83 165.92 165.99 165.97 165.78 165.44 165.10 164.90 164.80 164.76 164.75 164.75 164.75 164.75 164.75 164.74 164.73 164.73 164.72 164.71 164.70 164.70 164.69 164.69 164.69 164.69 164.69 164.69 164.69 164.69 164.69 164.67 164.62 164.51 164.31 163.99 163.56 163.10 162.74 162.61 162.72 162.90 163.07 163.26 163.45 163.66 163.87 164.08 164.28 164.48 164.67 164.87
155.56 155.49 155.42 155.36 155.31 155.26 155.21 155.17 155.13 155.08 155.03 154.97 154.93 154.90 154.91 154.94 155.01 155.10 155.20 155.32 155.44 155.57 155.71 155.85 156.01 156.16 156.32 156.47 156.63 156.78 156.92 157.08 157.23 157.39 157.57 157.77 157.99 158.19 158.36 158.48 158.53 158.52 158.45 158.36 158.24 158.13 158.03 157.92 157.78 157.64 157.51 157.42 157.38 157.39 157.45 157.54 157.65 157.76 157.85 157.91 157.96 158.00 158.04 158.08 158.13 158.19 158.26 158.34 158.42 158.50 158.56 158.61 158.64 158.66 158.67 158.67 158.67 158.65 158.64 158.63 158.62 158.59 158.54 158.45 158.31 158.12 157.90 157.66 157.41 157.17 156.95 156.73 156.50 156.28 156.08 155.90 155.75 155.64 155.57 155.53 155.49 155.45 155.38 155.28 155.15 155.01 154.87 154.77 154.71 154.72 154.81 154.94 155.09 155.26 155.41 155.53 155.63 155.71 155.79 155.88 155.97 156.09 156.24 156.43 156.65 156.84 156.99 157.07 157.07 156.99 156.86 156.71 156.54 156.39 156.27 156.16 156.04 155.93 155.83 155.75 155.68 155.62 155.56 155.52 155.51 155.55 155.66 155.85 156.12 156.43 156.78 157.14 157.48 157.80 158.13 158.47 158.80 159.12 159.41 159.66 159.87 160.06 160.23 160.38 160.52 160.64 160.75 160.85 160.92 160.98 161.06 161.15 161.26 161.39 161.52 161.66 161.77 161.86 161.91 161.93 161.92 161.90 161.86 161.81 161.76 161.68 161.60 161.49 161.39 161.28 161.19 161.08 160.96 160.84 160.73 160.65 160.60 160.61 160.68 160.79 160.90 160.98 161.01 160.94 160.81 160.63 160.41 160.18 159.95 159.73 159.52 159.31 159.10 158.87 158.62 158.35 158.03 157.66 157.28 156.90 156.56 156.28 156.07 155.93 155.82 155.75 155.70 155.66 155.64 155.64 155.67 155.72 155.77 155.79 155.77 155.74 155.68 155.61 155.52 155.42 155.29 155.13 154.94 154.73 154.51 154.29 154.09 153.90 153.70 153.51 153.34 153.18 153.05 152.97 152.93 152.93 152.94 152.97 153.00 153.01 153.01 153.01 153.01 153.01 153.01 153.01 153.01 153.01 153.01 153.01 153.01 153.01 153.00 153.00 152.99 152.99 152.98 152.97 152.97 152.96 152.96 152.95 152.94 152.94 152.94 152.94 152.94 152.95 152.96 152.96 152.96 152.97 152.97 152.97 152.97 152.97 152.97 152.98 152.98 152.98 152.98 152.99 152.99 152.98 152.98 152.96 152.95 152.94 152.93 152.94 152.96 152.97 152.99 153.03 153.09 153.18 153.31 153.48 153.69 153.92 154.15 154.37 154.58 154.79 155.01 155.23 155.43 155.61 155.76 155.87 155.94 156.00 156.04 156.10 156.18 156.28 156.40 156.52 156.65 156.78 156.90 157.01 157.10 157.19 157.28 157.38 157.51 157.74 158.32 159.00 159.80 160.53 161.10 161.53 161.96 162.27 162.54 162.78 162.99 163.16 163.30 163.42 163.53 163.81 163.96 164.12 164.26 164.39 164.56 164.73 164.91 165.11 165.31 165.50 165.64 165.75 165.80 165.71 165.47 165.17 164.95 164.84 164.80 164.78 164.78 164.78 164.78 164.78 164.77 164.77 164.76 164.75 164.73 164.72 164.71 164.70 164.70 164.69 164.68 164.68 164.68 164.68 164.68 164.67 164.65 164.61 164.52 164.35 164.05 163.64 163.17 162.79 162.64 162.73 162.89 163.05 163.21 163.38 163.56 163.74 163.93 164.12 164.31 164.50 164.68 164.87
155.65 155.58 155.52 155.45 155.39 155.34 155.28 155.22 155.17 155.12 155.06 155.00 154.95 154.92 154.92 154.96 155.03 155.14 155.26 155.39 155.52 155.65 155.78 155.92 156.06 156.20 156.35 156.50 156.65 156.82 156.98 157.14 157.31 157.48 157.66 157.87 158.08 158.29 158.46 158.58 158.63 158.62 158.56 158.46 158.35 158.24 158.14 158.03 157.90 157.76 157.64 157.55 157.49 157.50 157.55 157.62 157.71 157.80 157.88 157.94 157.99 158.03 158.08 158.13 158.18 158.24 158.33 158.41 158.51 158.59 158.66 158.71 158.75 158.77 158.78 158.78 158.77 158.76 158.75 158.75 158.73 158.71 158.65 158.57 158.43 158.25 158.03 157.79 157.54 157.31 157.09 156.87 156.64 156.42 156.21 156.03 155.88 155.77 155.70 155.66 155.62 155.57 155.50 155.39 155.25 155.09 154.94 154.82 154.76 154.77 154.84 154.97 155.13 155.29 155.44 155.56 155.65 155.74 155.82 155.90 155.99 156.11 156.26 156.44 156.65 156.83 156.98 157.06 157.06 156.99 156.87 156.72 156.56 156.42 156.31 156.20 156.09 155.98 155.88 155.81 155.76 155.71 155.67 155.65 155.66 155.71 155.83 156.02 156.29 156.60 156.94 157.29 157.62 157.94 158.26 158.60 158.93 159.24 159.52 159.77 159.99 160.18 160.35 160.50 160.64 160.77 160.88 160.97 161.04 161.11 161.18 161.26 161.37 161.49 161.62 161.75 161.86 161.94 161.99 162.01 162.02 162.00 161.98 161.94 161.90 161.85 161.79 161.71 161.63 161.55 161.46 161.35 161.23 161.10 160.98 160.88 160.81 160.79 160.83 160.90 160.97 161.01 161.01 160.93 160.80 160.62 160.42 160.20 159.98 159.78 159.59 159.39 159.20 158.99 158.76 158.51 158.20 157.85 157.48 157.12 156.78 156.51 156.30 156.15 156.05 155.97 155.92 155.88 155.85 155.86 155.90 155.95 156.00 156.02 156.00 155.95 155.88 155.80 155.69 155.56 155.41 155.24 155.02 154.79 154.54 154.30 154.09 153.88 153.69 153.50 153.32 153.16 153.04 152.95 152.91 152.91 152.93 152.96 152.99 153.00 153.00 153.00 153.00 153.00 153.00 153.00 153.00 153.00 153.00 153.00 153.00 153.00 153.00 153.00 153.00 153.00 153.01 153.01 153.01 153.01 153.02 153.03 153.03 153.03 153.03 153.03 153.03 153.02 153.01 153.01 153.00 152.99 152.99 152.98 152.97 152.96 152.95 152.94 152.92 152.91 152.89 152.87 152.86 152.85 152.84 152.84 152.84 152.84 152.85 152.87 152.89 152.90 152.92 152.95 153.01 153.10 153.24 153.42 153.64 153.87 154.11 154.34 154.55 154.78 155.00 155.23 155.44 155.62 155.77 155.87 155.93 155.97 156.00 156.05 156.11 156.21 156.32 156.45 156.59 156.71 156.84 156.95 157.04 157.13 157.21 157.32 157.45 157.67 158.19 158.85 159.62 160.35 160.95 161.40 161.82 162.14 162.41 162.66 162.88 163.07 163.22 163.34 163.45 163.55 163.84 163.99 164.13 164.27 164.41 164.58 164.76 164.94 165.12 165.29 165.44 165.53 165.53 165.39 165.19 165.00 164.88 164.83 164.82 164.82 164.82 164.82 164.81 164.81 164.80 164.79 164.78 164.77 164.75 164.74 164.72 164.71 164.70 164.69 164.68 164.68 164.68 164.67 164.67 164.65 164.61 164.53 164.39 164.14 163.76 163.32 162.92 162.73 162.77 162.91 163.05 163.20 163.35 163.49 163.65 163.81 163.98 164.16 164.34 164.51 164.69 164.87
155.75 155.68 155.62 155.55 155.49 155.42 155.35 155.29 155.23 155.17 155.10 155.04 154.98 154.95 154.95 154.99 155.07 155.18 155.31 155.45 155.59 155.72 155.85 155.98 156.11 156.25 156.39 156.54 156.70 156.87 157.04 157.21 157.39 157.56 157.75 157.96 158.18 158.38 158.55 158.68 158.73 158.72 158.66 158.57 158.46 158.35 158.25 158.14 158.01 157.89 157.77 157.67 157.62 157.62 157.65 157.71 157.79 157.86 157.93 157.98 158.03 158.07 158.12 158.17 158.23 158.30 158.38 158.48 158.58 158.67 158.75 158.80 158.84 158.86 158.87 158.87 158.86 158.85 158.84 158.84 158.83 158.80 158.75 158.67 158.54 158.36 158.15 157.91 157.68 157.44 157.23 157.01 156.78 156.56 156.35 156.16 156.01 155.90 155.83 155.78 155.74 155.69 155.62 155.51 155.37 155.21 155.05 154.93 154.86 154.86 154.93 155.05 155.20 155.36 155.50 155.62 155.71 155.78 155.86 155.94 156.03 156.13 156.28 156.45 156.64 156.82 156.96 157.04 157.04 156.98 156.88 156.74 156.61 156.48 156.38 156.28 156.18 156.09 156.00 155.94 155.90 155.86 155.84 155.83 155.85 155.91 156.03 156.23 156.48 156.79 157.12 157.46 157.78 158.09 158.41 158.73 159.05 159.36 159.64 159.89 160.11 160.30 160.48 160.64 160.79 160.92 161.02 161.10 161.17 161.23 161.30 161.37 161.47 161.57 161.69 161.80 161.90 161.98 162.03 162.07 162.08 162.09 162.08 162.06 162.04 162.01 161.96 161.91 161.85 161.78 161.70 161.60 161.48 161.35 161.21 161.10 161.02 160.98 160.98 161.01 161.04 161.05 161.02 160.94 160.80 160.64 160.45 160.26 160.06 159.87 159.69 159.52 159.34 159.14 158.93 158.69 158.41 158.09 157.74 157.40 157.08 156.82 156.62 156.47 156.35 156.26 156.19 156.14 156.10 156.09 156.12 156.16 156.19 156.20 156.17 156.10 156.02 155.91 155.79 155.64 155.48 155.29 155.07 154.82 154.57 154.32 154.09 153.89 153.68 153.50 153.32 153.16 153.04 152.95 152.91 152.90 152.93 152.96 152.98 152.99 153.00 153.00 153.00 153.00 153.00 153.00 152.99 152.99 152.99 152.98 152.98 152.98 152.98 152.98 152.99 153.00 153.01 153.02 153.02 153.04 153.05 153.07 153.08 153.09 153.09 153.08 153.07 153.05 153.03 153.00 152.98 152.96 152.94 152.92 152.91 152.88 152.86 152.83 152.79 152.76 152.71 152.68 152.65 152.64 152.64 152.65 152.67 152.69 152.72 152.75 152.78 152.80 152.82 152.85 152.91 153.00 153.14 153.33 153.55 153.78 154.02 154.26 154.48 154.71 154.94 155.17 155.38 155.56 155.71 155.81 155.86 155.89 155.91 155.95 156.01 156.11 156.23 156.36 156.50 156.64 156.77 156.88 156.98 157.07 157.17 157.28 157.42 157.62 158.06 158.69 159.40 160.13 160.76 161.25 161.61 162.00 162.29 162.53 162.76 162.96 163.13 163.26 163.37 163.47 163.55 163.83 163.98 164.11 164.25 164.40 164.58 164.77 164.95 165.11 165.23 165.29 165.24 165.14 165.02 164.93 164.88 164.86 164.86 164.86 164.86 164.85 164.84 164.84 164.82 164.81 164.80 164.79 164.77 164.75 164.74 164.72 164.71 164.70 164.69 164.68 164.67 164.66 164.65 164.62 164.55 164.43 164.23 163.93 163.52 163.13 162.90 162.88 162.97 163.09 163.21 163.34 163.47 163.60 163.73 163.87 164.02 164.18 164.34 164.51 164.69 164.87
155.85 155.79 155.73 155.67 155.59 155.51 155.43 155.36 155.29 155.22 155.15 155.08 155.02 154.98 154.98 155.02 155.11 155.23 155.37 155.52 155.67 155.80 155.92 156.04 156.17 156.30 156.44 156.59 156.75 156.92 157.10 157.28 157.47 157.65 157.84 158.05 158.27 158.48 158.65 158.78 158.83 158.82 158.76 158.67 158.56 158.46 158.36 158.26 158.14 158.01 157.90 157.81 157.76 157.75 157.77 157.81 157.87 157.93 157.98 158.03 158.08 158.12 158.17 158.22 158.29 158.36 158.45 158.55 158.65 158.75 158.83 158.88 158.92 158.94 158.94 158.94 158.93 158.92 158.91 158.91 158.90 158.88 158.84 158.76 158.63 158.47 158.26 158.04 157.81 157.59 157.38 157.15 156.93 156.70 156.49 156.30 156.14 156.04 155.97 155.92 155.88 155.83 155.76 155.65 155.50 155.35 155.20 155.07 155.01 155.00 155.07 155.18 155.31 155.46 155.59 155.70 155.78 155.85 155.92 155.99 156.07 156.17 156.30 156.46 156.63 156.80 156.93 157.01 157.02 156.97 156.89 156.78 156.66 156.56 156.48 156.40 156.32 156.24 156.17 156.12 156.09 156.07 156.05 156.05 156.08 156.15 156.27 156.46 156.71 157.00 157.32 157.64 157.95 158.25 158.56 158.87 159.18 159.48 159.75 160.00 160.22 160.43 160.62 160.79 160.94 161.07 161.18 161.25 161.31 161.36 161.41 161.47 161.55 161.64 161.74 161.83 161.91 161.98 162.04 162.09 162.13 162.15 162.18 162.18 162.18 162.17 162.15 162.11 162.07 162.01 161.94 161.84 161.72 161.59 161.46 161.33 161.24 161.17 161.14 161.12 161.11 161.09 161.03 160.94 160.82 160.67 160.51 160.34 160.17 160.00 159.83 159.67 159.50 159.32 159.13 158.91 158.66 158.36 158.05 157.74 157.46 157.21 157.02 156.85 156.72 156.61 156.52 156.45 156.38 156.36 156.35 156.36 156.36 156.34 156.29 156.20 156.10 155.97 155.83 155.68 155.50 155.31 155.08 154.83 154.57 154.32 154.10 153.89 153.69 153.50 153.32 153.16 153.04 152.95 152.91 152.90 152.92 152.95 152.98 152.99 152.99 152.99 153.00 153.00 152.99 152.99 152.99 152.98 152.97 152.96 152.95 152.95 152.95 152.96 152.96 152.97 152.99 153.00 153.01 153.04 153.06 153.09 153.11 153.12 153.12 153.11 153.08 153.04 153.00 152.96 152.92 152.89 152.86 152.82 152.79 152.75 152.71 152.67 152.61 152.54 152.47 152.41 152.37 152.36 152.37 152.40 152.45 152.50 152.55 152.60 152.64 152.67 152.69 152.73 152.78 152.88 153.02 153.21 153.43 153.66 153.91 154.14 154.36 154.59 154.83 155.06 155.27 155.46 155.61 155.70 155.74 155.77 155.79 155.81 155.88 155.98 156.10 156.25 156.40 156.55 156.69 156.82 156.93 157.03 157.14 157.26 157.40 157.59 157.95 158.51 159.16 159.87 160.52 161.05 161.46 161.84 162.14 162.39 162.62 162.83 163.01 163.15 163.27 163.37 163.46 163.53 163.80 163.93 164.06 164.21 164.38 164.57 164.76 164.92 165.03 165.06 165.04 164.99 164.95 164.92 164.91 164.91 164.91 164.90 164.90 164.89 164.88 164.87 164.85 164.84 164.82 164.81 164.79 164.77 164.75 164.73 164.71 164.70 164.69 164.67 164.66 164.65 164.62 164.58 164.49 164.33 164.10 163.77 163.41 163.15 163.07 163.11 163.18 163.28 163.38 163.49 163.59 163.70 163.80 163.92 164.04 164.18 164.33 164.50 164.68 164.87
155.95 155.90 155.85 155.78 155.70 155.61 155.52 155.43 155.36 155.29 155.21 155.13 155.07 155.03 155.02 155.07 155.16 155.28 155.43 155.59 155.74 155.87 155.99 156.11 156.23 156.35 156.48 156.63 156.80 156.98 157.17 157.36 157.55 157.74 157.93 158.15 158.37 158.58 158.75 158.87 158.93 158.92 158.86 158.77 158.67 158.56 158.47 158.38 158.26 158.15 158.04 157.96 157.90 157.88 157.89 157.92 157.96 158.00 158.05 158.09 158.13 158.17 158.22 158.28 158.34 158.42 158.51 158.61 158.72 158.82 158.90 158.96 158.99 159.01 159.01 159.00 158.99 158.98 158.97 158.97 158.97 158.95 158.91 158.84 158.72 158.57 158.38 158.17 157.95 157.74 157.53 157.31 157.08 156.85 156.63 156.44 156.28 156.17 156.10 156.05 156.01 155.97 155.90 155.80 155.66 155.51 155.37 155.25 155.19 155.18 155.23 155.33 155.46 155.58 155.70 155.80 155.87 155.93 155.99 156.06 156.13 156.22 156.34 156.48 156.63 156.78 156.90 156.97 156.99 156.96 156.90 156.82 156.73 156.66 156.60 156.54 156.48 156.42 156.38 156.34 156.33 156.32 156.31 156.31 156.35 156.42 156.54 156.72 156.96 157.23 157.53 157.84 158.13 158.42 158.71 159.01 159.31 159.59 159.86 160.10 160.33 160.55 160.75 160.94 161.10 161.23 161.33 161.40 161.45 161.48 161.52 161.57 161.63 161.70 161.76 161.83 161.90 161.96 162.02 162.09 162.15 162.21 162.26 162.30 162.32 162.32 162.32 162.30 162.27 162.23 162.16 162.07 161.96 161.83 161.69 161.56 161.45 161.37 161.30 161.24 161.19 161.12 161.05 160.95 160.83 160.71 160.57 160.43 160.29 160.14 159.99 159.84 159.68 159.51 159.33 159.14 158.91 158.66 158.39 158.12 157.87 157.64 157.45 157.28 157.14 157.00 156.89 156.78 156.69 156.63 156.59 156.55 156.51 156.46 156.37 156.26 156.14 156.00 155.85 155.68 155.50 155.29 155.07 154.82 154.57 154.33 154.10 153.90 153.69 153.50 153.32 153.16 153.04 152.95 152.91 152.90 152.92 152.95 152.98 152.99 152.99 153.00 153.00 153.00 152.99 152.99 152.98 152.97 152.95 152.94 152.93 152.92 152.92 152.92 152.93 152.95 152.96 152.97 152.99 153.02 153.05 153.09 153.12 153.13 153.13 153.11 153.06 153.01 152.95 152.89 152.83 152.78 152.73 152.69 152.64 152.59 152.53 152.47 152.38 152.29 152.19 152.11 152.05 152.04 152.06 152.11 152.19 152.28 152.36 152.43 152.48 152.51 152.54 152.58 152.64 152.74 152.88 153.07 153.28 153.52 153.76 153.99 154.21 154.45 154.68 154.92 155.13 155.32 155.46 155.55 155.59 155.61 155.63 155.65 155.72 155.83 155.96 156.12 156.28 156.45 156.61 156.75 156.88 157.00 157.12 157.26 157.41 157.59 157.86 158.34 158.94 159.58 160.22 160.79 161.25 161.60 161.95 162.23 162.46 162.67 162.86 163.01 163.14 163.25 163.35 163.42 163.49 163.72 163.84 163.98 164.15 164.35 164.54 164.70 164.83 164.90 164.94 164.95 164.94 164.94 164.94 164.94 164.94 164.94 164.94 164.93 164.92 164.90 164.88 164.86 164.84 164.82 164.80 164.79 164.76 164.74 164.72 164.70 164.69 164.67 164.65 164.63 164.60 164.54 164.44 164.27 164.03 163.74 163.48 163.34 163.32 163.35 163.40 163.47 163.55 163.63 163.71 163.79 163.87 163.96 164.06 164.18 164.32 164.48 164.66 164.86
156.04 156.00 155.95 155.88 155.80 155.70 155.60 155.51 155.43 155.36 155.27 155.19 155.12 155.08 155.08 155.12 155.21 155.34 155.50 155.65 155.81 155.94 156.06 156.17 156.28 156.40 156.54 156.68 156.85 157.04 157.23 157.43 157.63 157.82 158.02 158.24 158.46 158.66 158.84 158.96 159.02 159.01 158.96 158.87 158.77 158.67 158.58 158.49 158.39 158.28 158.19 158.11 158.05 158.03 158.02 158.03 158.06 158.09 158.12 158.15 158.19 158.23 158.28 158.34 158.40 158.48 158.57 158.67 158.78 158.88 158.96 159.02 159.05 159.06 159.06 159.05 159.04 159.02 159.02 159.02 159.02 159.01 158.97 158.91 158.80 158.66 158.48 158.29 158.08 157.88 157.68 157.46 157.23 156.99 156.77 156.58 156.42 156.31 156.24 156.20 156.16 156.11 156.05 155.95 155.83 155.69 155.56 155.46 155.39 155.38 155.43 155.51 155.62 155.73 155.84 155.92 155.98 156.03 156.09 156.14 156.21 156.28 156.38 156.50 156.64 156.76 156.86 156.94 156.96 156.95 156.92 156.87 156.81 156.76 156.73 156.70 156.66 156.62 156.60 156.58 156.58 156.58 156.58 156.59 156.62 156.70 156.81 156.98 157.21 157.47 157.76 158.05 158.33 158.60 158.87 159.16 159.44 159.71 159.97 160.21 160.45 160.67 160.89 161.08 161.25 161.38 161.48 161.54 161.57 161.60 161.62 161.65 161.70 161.74 161.79 161.83 161.88 161.94 162.00 162.08 162.17 162.26 162.34 162.40 162.44 162.47 162.48 162.48 162.46 162.43 162.37 162.29 162.18 162.06 161.92 161.79 161.67 161.56 161.46 161.36 161.26 161.17 161.07 160.96 160.86 160.75 160.64 160.53 160.41 160.28 160.14 160.00 159.85 159.70 159.53 159.36 159.16 158.95 158.72 158.50 158.28 158.07 157.89 157.72 157.55 157.39 157.25 157.11 156.99 156.89 156.80 156.73 156.65 156.55 156.44 156.31 156.16 156.01 155.84 155.66 155.47 155.27 155.04 154.80 154.56 154.32 154.10 153.90 153.70 153.51 153.32 153.17 153.04 152.95 152.91 152.91 152.93 152.96 152.98 152.99 152.99 153.00 153.00 153.00 153.00 152.99 152.98 152.96 152.95 152.93 152.91 152.90 152.90 152.90 152.91 152.92 152.94 152.95 152.97 153.00 153.04 153.08 153.11 153.13 153.12 153.08 153.03 152.95 152.86 152.78 152.70 152.64 152.57 152.52 152.46 152.39 152.32 152.24 152.13 152.01 151.89 151.79 151.72 151.70 151.74 151.82 151.93 152.04 152.15 152.25 152.31 152.35 152.39 152.43 152.49 152.58 152.73 152.91 153.13 153.36 153.60 153.83 154.05 154.28 154.51 154.74 154.96 155.14 155.29 155.38 155.42 155.44 155.45 155.48 155.55 155.67 155.81 155.98 156.17 156.35 156.52 156.68 156.82 156.97 157.11 157.27 157.43 157.62 157.85 158.21 158.72 159.30 159.91 160.48 160.99 161.39 161.70 162.03 162.27 162.48 162.67 162.84 162.98 163.10 163.20 163.28 163.36 163.43 163.62 163.73 163.89 164.08 164.29 164.51 164.69 164.83 164.91 164.95 164.96 164.97 164.97 164.97 164.97 164.97 164.97 164.96 164.95 164.93 164.91 164.89 164.86 164.84 164.82 164.80 164.78 164.75 164.73 164.70 164.68 164.67 164.65 164.62 164.59 164.53 164.43 164.28 164.07 163.84 163.68 163.61 163.59 163.59 163.62 163.66 163.72 163.77 163.83 163.88 163.94 164.00 164.08 164.18 164.30 164.47 164.65 164.86
156.12 156.09 156.04 155.97 155.88 155.79 155.68 155.59 155.51 155.43 155.34 155.26 155.19 155.15 155.14 155.19 155.28 155.41 155.56 155.72 155.87 156.00 156.12 156.23 156.35 156.47 156.60 156.75 156.91 157.10 157.30 157.50 157.70 157.90 158.09 158.31 158.52 158.73 158.90 159.02 159.08 159.08 159.03 158.95 158.85 158.76 158.68 158.60 158.51 158.42 158.33 158.25 158.20 158.17 158.15 158.15 158.16 158.18 158.20 158.23 158.26 158.31 158.35 158.41 158.47 158.54 158.63 158.73 158.84 158.93 159.01 159.07 159.10 159.10 159.10 159.09 159.07 159.06 159.05 159.06 159.06 159.05 159.03 158.97 158.87 158.74 158.58 158.40 158.21 158.02 157.82 157.61 157.38 157.14 156.91 156.72 156.56 156.45 156.38 156.33 156.30 156.26 156.20 156.11 156.00 155.88 155.77 155.67 155.62 155.61 155.64 155.71 155.81 155.90 155.99 156.06 156.11 156.16 156.20 156.25 156.30 156.37 156.45 156.55 156.66 156.76 156.85 156.91 156.95 156.96 156.95 156.92 156.90 156.88 156.87 156.86 156.84 156.83 156.83 156.83 156.84 156.85 156.85 156.86 156.90 156.96 157.08 157.24 157.46 157.71 157.98 158.25 158.52 158.78 159.04 159.31 159.58 159.84 160.08 160.32 160.56 160.79 161.01 161.22 161.39 161.52 161.61 161.67 161.69 161.70 161.71 161.74 161.77 161.79 161.81 161.84 161.88 161.92 161.99 162.08 162.19 162.31 162.41 162.50 162.56 162.60 162.62 162.64 162.63 162.60 162.56 162.49 162.39 162.27 162.13 162.00 161.87 161.75 161.61 161.48 161.35 161.22 161.09 160.99 160.89 160.80 160.71 160.62 160.52 160.41 160.28 160.15 160.01 159.86 159.71 159.55 159.39 159.21 159.02 158.84 158.65 158.47 158.29 158.11 157.93 157.75 157.58 157.41 157.26 157.13 157.00 156.89 156.77 156.64 156.49 156.34 156.17 156.01 155.83 155.64 155.45 155.24 155.02 154.78 154.55 154.32 154.10 153.90 153.71 153.51 153.33 153.17 153.04 152.95 152.91 152.91 152.93 152.96 152.98 152.99 153.00 153.00 153.00 153.00 153.00 152.99 152.98 152.97 152.95 152.93 152.91 152.90 152.90 152.90 152.91 152.92 152.93 152.94 152.96 152.99 153.03 153.07 153.10 153.11 153.10 153.04 152.96 152.86 152.75 152.65 152.55 152.47 152.39 152.32 152.26 152.18 152.10 152.00 151.88 151.74 151.60 151.48 151.41 151.39 151.44 151.54 151.67 151.82 151.95 152.06 152.14 152.18 152.22 152.27 152.33 152.43 152.58 152.76 152.97 153.20 153.43 153.65 153.87 154.09 154.32 154.55 154.76 154.95 155.09 155.18 155.23 155.25 155.26 155.30 155.38 155.51 155.66 155.85 156.04 156.24 156.43 156.61 156.78 156.94 157.11 157.28 157.47 157.67 157.88 158.14 158.55 159.06 159.59 160.15 160.68 161.13 161.50 161.78 162.07 162.28 162.46 162.63 162.78 162.90 163.01 163.11 163.20 163.28 163.37 163.46 163.65 163.84 164.11 164.39 164.64 164.82 164.92 164.96 164.98 164.99 165.00 165.00 165.00 164.99 164.99 164.98 164.97 164.96 164.94 164.92 164.89 164.86 164.83 164.81 164.79 164.76 164.73 164.71 164.68 164.66 164.64 164.62 164.60 164.57 164.51 164.40 164.23 164.08 163.97 163.90 163.86 163.84 163.84 163.86 163.89 163.92 163.95 163.98 164.01 164.05 164.11 164.20 164.32 164.47 164.67 164.88
156.19 156.15 156.10 156.03 155.95 155.85 155.75 155.66 155.58 155.51 155.42 155.34 155.28 155.23 155.23 155.27 155.36 155.48 155.63 155.78 155.93 156.06 156.18 156.29 156.41 156.53 156.67 156.82 156.99 157.17 157.36 157.56 157.76 157.95 158.14 158.35 158.57 158.76 158.94 159.06 159.12 159.13 159.08 159.01 158.93 158.84 158.77 158.70 158.62 158.54 158.46 158.40 158.35 158.31 158.29 158.28 158.28 158.29 158.30 158.32 158.35 158.39 158.43 158.49 158.54 158.61 158.69 158.79 158.88 158.98 159.05 159.10 159.13 159.14 159.13 159.11 159.10 159.08 159.08 159.09 159.09 159.09 159.07 159.01 158.93 158.81 158.66 158.50 158.33 158.15 157.96 157.75 157.52 157.28 157.05 156.85 156.70 156.59 156.52 156.47 156.44 156.40 156.35 156.27 156.18 156.07 155.98 155.90 155.85 155.84 155.87 155.93 156.01 156.09 156.16 156.22 156.26 156.30 156.34 156.38 156.42 156.47 156.54 156.62 156.70 156.78 156.85 156.91 156.95 156.97 156.99 156.99 156.99 157.00 157.01 157.02 157.03 157.03 157.04 157.06 157.08 157.10 157.10 157.12 157.15 157.22 157.32 157.49 157.69 157.93 158.19 158.46 158.72 158.96 159.21 159.47 159.73 159.98 160.22 160.45 160.68 160.91 161.13 161.34 161.51 161.64 161.73 161.77 161.79 161.80 161.80 161.81 161.83 161.84 161.85 161.86 161.89 161.93 162.00 162.10 162.23 162.35 162.48 162.58 162.65 162.70 162.74 162.76 162.77 162.76 162.72 162.66 162.56 162.45 162.33 162.20 162.06 161.93 161.77 161.61 161.44 161.28 161.14 161.02 160.93 160.85 160.77 160.70 160.61 160.51 160.39 160.26 160.13 159.99 159.85 159.71 159.57 159.42 159.27 159.11 158.95 158.79 158.61 158.42 158.23 158.03 157.84 157.65 157.48 157.32 157.17 157.02 156.87 156.71 156.55 156.37 156.19 156.01 155.82 155.63 155.43 155.22 155.00 154.77 154.54 154.32 154.11 153.91 153.71 153.52 153.33 153.17 153.04 152.96 152.92 152.91 152.93 152.96 152.99 153.00 153.00 153.00 153.00 153.00 153.00 153.00 152.99 152.98 152.97 152.95 152.94 152.94 152.94 152.94 152.94 152.95 152.95 152.96 152.97 153.00 153.03 153.06 153.09 153.09 153.06 152.99 152.88 152.76 152.62 152.49 152.37 152.28 152.20 152.12 152.04 151.97 151.88 151.78 151.64 151.49 151.34 151.22 151.14 151.12 151.18 151.30 151.45 151.62 151.77 151.89 151.98 152.03 152.08 152.12 152.19 152.29 152.43 152.61 152.81 153.04 153.26 153.48 153.69 153.91 154.13 154.35 154.56 154.74 154.88 154.98 155.03 155.05 155.08 155.13 155.22 155.35 155.52 155.72 155.93 156.14 156.35 156.54 156.73 156.92 157.11 157.31 157.51 157.73 157.94 158.16 158.44 158.87 159.35 159.83 160.35 160.84 161.25 161.58 161.83 162.08 162.26 162.41 162.56 162.69 162.81 162.92 163.02 163.11 163.21 163.33 163.48 163.70 164.04 164.38 164.66 164.84 164.94 164.98 165.00 165.01 165.01 165.01 165.01 165.01 165.00 165.00 164.99 164.98 164.96 164.94 164.91 164.88 164.85 164.82 164.79 164.76 164.73 164.70 164.68 164.66 164.65 164.66 164.69 164.71 164.70 164.62 164.49 164.37 164.26 164.18 164.12 164.08 164.06 164.05 164.06 164.07 164.08 164.09 164.10 164.13 164.17 164.24 164.36 164.51 164.71 164.93
156.23 156.18 156.12 156.06 155.98 155.90 155.81 155.73 155.66 155.59 155.51 155.44 155.37 155.33 155.33 155.37 155.45 155.56 155.70 155.84 155.98 156.11 156.23 156.36 156.49 156.62 156.76 156.91 157.08 157.25 157.43 157.62 157.80 157.98 158.17 158.37 158.58 158.77 158.94 159.07 159.13 159.14 159.11 159.05 158.98 158.90 158.85 158.79 158.72 158.66 158.59 158.53 158.49 158.46 158.44 158.42 158.42 158.42 158.42 158.44 158.46 158.49 158.53 158.58 158.63 158.68 158.76 158.84 158.93 159.00 159.07 159.11 159.13 159.14 159.13 159.12 159.10 159.09 159.09 159.10 159.11 159.11 159.09 159.04 158.97 158.86 158.74 158.59 158.44 158.27 158.09 157.88 157.65 157.41 157.18 156.98 156.83 156.72 156.65 156.61 156.58 156.54 156.50 156.43 156.35 156.27 156.20 156.14 156.10 156.09 156.12 156.17 156.23 156.29 156.35 156.40 156.44 156.47 156.50 156.53 156.57 156.61 156.66 156.71 156.77 156.82 156.88 156.93 156.97 157.00 157.03 157.07 157.09 157.12 157.15 157.18 157.20 157.23 157.26 157.28 157.31 157.33 157.34 157.35 157.38 157.44 157.55 157.71 157.91 158.15 158.40 158.66 158.91 159.16 159.40 159.65 159.89 160.13 160.37 160.59 160.81 161.03 161.25 161.44 161.60 161.73 161.81 161.85 161.87 161.87 161.87 161.88 161.90 161.90 161.90 161.91 161.93 161.97 162.04 162.14 162.27 162.40 162.53 162.64 162.72 162.77 162.82 162.86 162.88 162.87 162.84 162.79 162.71 162.61 162.50 162.37 162.24 162.09 161.92 161.73 161.54 161.36 161.20 161.07 160.97 160.89 160.82 160.74 160.67 160.57 160.46 160.33 160.21 160.07 159.94 159.81 159.68 159.56 159.44 159.31 159.17 159.01 158.84 158.65 158.45 158.24 158.03 157.83 157.65 157.47 157.29 157.13 156.96 156.78 156.60 156.41 156.22 156.03 155.83 155.63 155.43 155.22 155.00 154.77 154.54 154.32 154.12 153.91 153.71 153.52 153.34 153.17 153.05 152.96 152.92 152.91 152.93 152.96 152.99 153.00 153.01 153.01 153.01 153.01 153.01 153.01 153.01 153.01 153.01 153.02 153.02 153.02 153.02 153.02 153.02 153.02 153.01 153.01 153.01 153.02 153.04 153.06 153.06 153.04 152.99 152.89 152.76 152.61 152.45 152.29 152.16 152.05 151.96 151.88 151.81 151.73 151.65 151.55 151.42 151.26 151.12 151.00 150.92 150.91 150.98 151.10 151.26 151.44 151.61 151.73 151.82 151.88 151.93 151.98 152.05 152.15 152.29 152.47 152.66 152.88 153.09 153.31 153.51 153.72 153.93 154.14 154.34 154.52 154.66 154.76 154.82 154.86 154.90 154.96 155.07 155.21 155.39 155.60 155.82 156.04 156.26 156.47 156.69 156.91 157.13 157.35 157.58 157.81 158.03 158.24 158.48 158.77 159.18 159.63 160.09 160.56 160.99 161.36 161.65 161.88 162.07 162.23 162.36 162.49 162.61 162.72 162.84 162.96 163.07 163.20 163.38 163.68 164.06 164.43 164.71 164.88 164.96 165.00 165.02 165.02 165.02 165.02 165.02 165.02 165.01 165.01 165.00 164.99 164.98 164.96 164.93 164.90 164.87 164.83 164.80 164.77 164.73 164.70 164.68 164.68 164.71 164.78 164.89 164.98 164.99 164.91 164.79 164.67 164.55 164.46 164.38 164.33 164.28 164.25 164.23 164.21 164.21 164.21 164.21 164.22 164.26 164.32 164.43 164.58 164.78 165.01
156.25 156.18 156.12 156.06 155.99 155.92 155.85 155.79 155.73 155.67 155.61 155.54 155.49 155.46 155.45 155.49 155.56 155.65 155.76 155.89 156.02 156.15 156.28 156.42 156.57 156.73 156.88 157.04 157.20 157.35 157.52 157.68 157.85 158.01 158.18 158.38 158.57 158.76 158.92 159.04 159.11 159.13 159.11 159.07 159.01 158.95 158.91 158.87 158.82 158.77 158.72 158.67 158.63 158.61 158.59 158.57 158.56 158.56 158.56 158.57 158.59 158.62 158.65 158.68 158.72 158.77 158.82 158.89 158.95 159.01 159.07 159.10 159.11 159.12 159.11 159.10 159.09 159.08 159.08 159.09 159.10 159.11 159.09 159.06 158.99 158.90 158.80 158.67 158.54 158.38 158.21 158.01 157.78 157.54 157.32 157.11 156.96 156.86 156.79 156.74 156.71 156.69 156.65 156.60 156.54 156.49 156.44 156.40 156.38 156.38 156.40 156.44 156.48 156.53 156.58 156.62 156.65 156.67 156.70 156.72 156.75 156.78 156.80 156.83 156.86 156.88 156.92 156.95 157.00 157.04 157.10 157.15 157.21 157.26 157.31 157.35 157.40 157.44 157.48 157.52 157.56 157.58 157.59 157.59 157.61 157.67 157.77 157.92 158.13 158.36 158.62 158.88 159.13 159.36 159.60 159.84 160.07 160.31 160.53 160.74 160.95 161.16 161.35 161.53 161.68 161.80 161.87 161.91 161.93 161.93 161.93 161.94 161.95 161.95 161.96 161.96 161.98 162.02 162.09 162.19 162.31 162.44 162.57 162.67 162.75 162.82 162.87 162.91 162.94 162.94 162.93 162.88 162.82 162.74 162.64 162.52 162.39 162.24 162.05 161.85 161.64 161.44 161.26 161.12 161.01 160.93 160.85 160.77 160.69 160.60 160.48 160.36 160.24 160.12 159.99 159.87 159.76 159.65 159.55 159.44 159.32 159.18 159.01 158.82 158.61 158.40 158.18 157.97 157.77 157.58 157.39 157.21 157.03 156.84 156.65 156.45 156.25 156.05 155.85 155.64 155.43 155.21 154.99 154.77 154.54 154.33 154.12 153.92 153.72 153.52 153.34 153.18 153.05 152.96 152.92 152.92 152.94 152.97 153.00 153.01 153.02 153.02 153.02 153.02 153.03 153.04 153.05 153.07 153.09 153.12 153.13 153.15 153.15 153.15 153.14 153.13 153.12 153.10 153.08 153.07 153.06 153.04 153.01 152.96 152.88 152.76 152.59 152.40 152.21 152.03 151.88 151.76 151.67 151.59 151.53 151.46 151.38 151.29 151.17 151.03 150.90 150.79 150.73 150.73 150.80 150.93 151.10 151.27 151.44 151.57 151.67 151.73 151.78 151.84 151.91 152.01 152.15 152.31 152.51 152.71 152.92 153.12 153.31 153.51 153.71 153.90 154.09 154.26 154.40 154.51 154.58 154.65 154.71 154.80 154.91 155.08 155.27 155.48 155.71 155.94 156.18 156.42 156.66 156.91 157.17 157.43 157.68 157.93 158.16 158.38 158.61 158.85 159.15 159.53 159.95 160.38 160.79 161.17 161.49 161.74 161.93 162.08 162.21 162.33 162.44 162.56 162.69 162.83 162.96 163.12 163.38 163.76 164.17 164.52 164.77 164.91 164.98 165.01 165.02 165.03 165.03 165.03 165.03 165.02 165.02 165.02 165.01 165.00 164.99 164.97 164.95 164.92 164.88 164.84 164.80 164.77 164.74 164.71 164.71 164.76 164.87 165.05 165.23 165.34 165.31 165.21 165.09 164.96 164.85 164.75 164.66 164.58 164.51 164.45 164.40 164.36 164.34 164.32 164.32 164.32 164.35 164.42 164.52 164.68 164.88 165.11
156.26 156.17 156.09 156.03 155.98 155.93 155.89 155.85 155.81 155.76 155.71 155.66 155.62 155.60 155.60 155.62 155.67 155.75 155.83 155.93 156.05 156.18 156.32 156.49 156.66 156.84 157.02 157.18 157.33 157.47 157.60 157.74 157.88 158.02 158.18 158.36 158.55 158.72 158.88 159.00 159.07 159.10 159.10 159.07 159.03 158.99 158.96 158.94 158.91 158.87 158.84 158.81 158.78 158.76 158.75 158.73 158.73 158.72 158.72 158.73 158.74 158.76 158.78 158.80 158.83 158.86 158.89 158.93 158.98 159.01 159.05 159.07 159.08 159.08 159.08 159.07 159.06 159.05 159.06 159.07 159.08 159.09 159.09 159.05 159.00 158.93 158.85 158.74 158.62 158.49 158.33 158.14 157.91 157.67 157.44 157.24 157.09 156.99 156.92 156.88 156.85 156.83 156.80 156.77 156.74 156.71 156.69 156.68 156.67 156.68 156.70 156.73 156.76 156.80 156.83 156.85 156.88 156.90 156.92 156.94 156.95 156.97 156.97 156.97 156.96 156.96 156.97 156.99 157.03 157.09 157.17 157.25 157.33 157.40 157.47 157.53 157.60 157.66 157.72 157.77 157.81 157.83 157.83 157.83 157.84 157.88 157.98 158.13 158.34 158.58 158.83 159.09 159.34 159.57 159.80 160.04 160.27 160.49 160.70 160.90 161.09 161.28 161.45 161.61 161.75 161.85 161.92 161.96 161.97 161.97 161.97 161.98 162.00 162.01 162.01 162.02 162.04 162.08 162.15 162.24 162.35 162.47 162.59 162.69 162.77 162.84 162.90 162.94 162.98 162.99 162.98 162.95 162.91 162.85 162.76 162.66 162.54 162.38 162.19 161.97 161.74 161.53 161.34 161.18 161.06 160.97 160.88 160.79 160.71 160.60 160.49 160.37 160.24 160.13 160.01 159.90 159.80 159.71 159.63 159.53 159.43 159.30 159.14 158.95 158.73 158.51 158.28 158.07 157.86 157.66 157.47 157.28 157.08 156.88 156.68 156.48 156.27 156.06 155.85 155.64 155.42 155.21 154.99 154.76 154.55 154.33 154.13 153.93 153.72 153.53 153.34 153.18 153.05 152.96 152.92 152.92 152.95 152.98 153.01 153.03 153.03 153.03 153.04 153.04 153.05 153.07 153.10 153.14 153.19 153.24 153.28 153.31 153.32 153.31 153.30 153.28 153.24 153.21 153.16 153.12 153.08 153.02 152.95 152.86 152.75 152.59 152.39 152.17 151.94 151.74 151.56 151.44 151.35 151.27 151.22 151.16 151.10 151.02 150.92 150.80 150.69 150.61 150.56 150.57 150.65 150.78 150.94 151.11 151.28 151.41 151.51 151.58 151.63 151.69 151.77 151.87 152.00 152.16 152.34 152.54 152.73 152.93 153.10 153.28 153.46 153.64 153.81 153.97 154.11 154.23 154.33 154.42 154.51 154.62 154.76 154.94 155.14 155.36 155.60 155.84 156.10 156.35 156.63 156.92 157.22 157.52 157.80 158.07 158.32 158.55 158.78 159.01 159.27 159.57 159.93 160.32 160.72 161.08 161.40 161.66 161.86 162.01 162.13 162.24 162.35 162.47 162.61 162.76 162.91 163.13 163.46 163.89 164.30 164.62 164.83 164.94 165.00 165.02 165.03 165.03 165.03 165.03 165.03 165.03 165.02 165.02 165.02 165.01 165.00 164.98 164.96 164.93 164.90 164.85 164.81 164.77 164.75 164.75 164.80 164.94 165.18 165.46 165.65 165.68 165.60 165.50 165.38 165.26 165.15 165.04 164.94 164.84 164.74 164.64 164.56 164.51 164.47 164.44 164.43 164.44 164.47 164.53 164.63 164.79 164.99 165.23
156.26 156.14 156.06 156.00 155.96 155.94 155.92 155.90 155.88 155.86 155.82 155.79 155.76 155.74 155.74 155.76 155.80 155.84 155.91 155.98 156.08 156.20 156.36 156.55 156.75 156.96 157.15 157.31 157.45 157.57 157.68 157.79 157.90 158.02 158.16 158.33 158.50 158.67 158.82 158.94 159.02 159.06 159.07 159.06 159.04 159.02 159.01 159.00 158.99 158.97 158.96 158.94 158.93 158.92 158.91 158.90 158.89 158.89 158.89 158.89 158.89 158.90 158.91 158.92 158.93 158.95 158.96 158.98 158.99 159.01 159.02 159.03 159.04 159.04 159.03 159.03 159.03 159.03 159.03 159.04 159.06 159.07 159.07 159.05 159.01 158.96 158.89 158.81 158.71 158.59 158.45 158.26 158.04 157.80 157.57 157.37 157.22 157.12 157.05 157.01 156.99 156.97 156.96 156.94 156.94 156.94 156.95 156.97 156.98 156.99 157.01 157.03 157.05 157.07 157.09 157.11 157.12 157.14 157.15 157.16 157.17 157.17 157.15 157.12 157.08 157.05 157.03 157.04 157.08 157.15 157.25 157.35 157.45 157.55 157.63 157.71 157.79 157.87 157.94 158.01 158.05 158.08 158.07 158.05 158.06 158.09 158.18 158.33 158.54 158.78 159.04 159.30 159.55 159.78 160.01 160.24 160.46 160.68 160.88 161.06 161.24 161.40 161.55 161.68 161.80 161.89 161.95 161.99 162.00 162.01 162.02 162.03 162.05 162.06 162.08 162.09 162.12 162.16 162.22 162.30 162.40 162.51 162.61 162.71 162.78 162.85 162.91 162.96 163.00 163.02 163.02 163.01 162.98 162.94 162.88 162.79 162.68 162.52 162.33 162.10 161.86 161.63 161.42 161.26 161.13 161.01 160.91 160.81 160.71 160.60 160.49 160.37 160.24 160.13 160.02 159.91 159.82 159.74 159.67 159.60 159.51 159.38 159.22 159.03 158.82 158.59 158.36 158.14 157.93 157.72 157.52 157.32 157.12 156.92 156.71 156.50 156.28 156.07 155.85 155.64 155.42 155.20 154.98 154.76 154.54 154.33 154.13 153.93 153.73 153.53 153.34 153.18 153.05 152.96 152.92 152.92 152.95 152.99 153.02 153.04 153.05 153.05 153.05 153.06 153.07 153.10 153.14 153.21 153.29 153.36 153.43 153.47 153.49 153.48 153.46 153.42 153.38 153.32 153.25 153.18 153.10 153.01 152.90 152.77 152.61 152.42 152.18 151.93 151.67 151.44 151.25 151.11 151.02 150.95 150.91 150.87 150.82 150.76 150.68 150.59 150.50 150.44 150.41 150.43 150.51 150.64 150.80 150.97 151.13 151.26 151.35 151.43 151.49 151.55 151.63 151.73 151.86 152.01 152.18 152.36 152.55 152.72 152.89 153.05 153.21 153.37 153.52 153.67 153.82 153.95 154.07 154.19 154.31 154.45 154.61 154.80 155.02 155.24 155.49 155.74 156.01 156.29 156.60 156.93 157.27 157.60 157.92 158.21 158.47 158.72 158.95 159.19 159.44 159.71 160.03 160.38 160.74 161.09 161.40 161.66 161.85 161.99 162.10 162.20 162.29 162.41 162.55 162.71 162.90 163.19 163.58 164.02 164.41 164.69 164.87 164.96 165.01 165.03 165.04 165.04 165.04 165.03 165.03 165.03 165.03 165.03 165.02 165.02 165.01 164.99 164.97 164.94 164.91 164.86 164.82 164.79 164.79 164.84 164.99 165.27 165.64 165.93 166.02 165.96 165.87 165.77 165.66 165.55 165.43 165.32 165.21 165.09 164.96 164.84 164.74 164.65 164.61 164.57 164.56 164.56 164.60 164.66 164.77 164.92 165.13 165.36
156.25 156.11 156.02 155.96 155.94 155.94 155.95 155.96 155.96 155.95 155.93 155.91 155.90 155.89 155.90 155.91 155.93 155.95 155.99 156.04 156.13 156.24 156.41 156.61 156.83 157.06 157.26 157.43 157.55 157.65 157.73 157.81 157.90 158.00 158.13 158.27 158.44 158.60 158.74 158.86 158.95 159.00 159.03 159.04 159.05 159.05 159.06 159.07 159.07 159.07 159.07 159.07 159.07 159.07 159.07 159.06 159.06 159.05 159.05 159.05 159.05 159.05 159.04 159.04 159.04 159.04 159.03 159.02 159.01 159.01 159.00 158.99 158.99 158.99 158.99 158.99 158.99 158.99 159.00 159.02 159.04 159.05 159.05 159.04 159.01 158.97 158.93 158.87 158.79 158.69 158.55 158.37 158.15 157.92 157.69 157.50 157.35 157.25 157.19 157.15 157.13 157.12 157.11 157.11 157.13 157.17 157.21 157.25 157.28 157.30 157.32 157.33 157.34 157.35 157.35 157.36 157.37 157.38 157.39 157.40 157.39 157.38 157.35 157.29 157.22 157.15 157.11 157.11 157.15 157.22 157.33 157.45 157.58 157.69 157.79 157.88 157.98 158.07 158.15 158.23 158.28 158.30 158.29 158.26 158.26 158.28 158.37 158.52 158.73 158.98 159.24 159.51 159.76 159.99 160.21 160.44 160.66 160.86 161.05 161.22 161.38 161.51 161.64 161.75 161.84 161.92 161.98 162.01 162.03 162.04 162.06 162.08 162.10 162.12 162.15 162.17 162.20 162.25 162.30 162.38 162.47 162.56 162.65 162.73 162.80 162.86 162.93 162.98 163.03 163.06 163.07 163.07 163.06 163.04 163.00 162.92 162.82 162.67 162.47 162.23 161.99 161.74 161.53 161.35 161.20 161.07 160.96 160.84 160.73 160.61 160.49 160.37 160.25 160.14 160.03 159.93 159.84 159.77 159.71 159.65 159.56 159.44 159.29 159.10 158.88 158.65 158.41 158.18 157.97 157.76 157.55 157.35 157.14 156.93 156.72 156.51 156.29 156.07 155.85 155.63 155.42 155.20 154.98 154.76 154.54 154.34 154.13 153.93 153.74 153.54 153.35 153.18 153.05 152.96 152.92 152.92 152.96 152.99 153.02 153.05 153.05 153.05 153.05 153.06 153.08 153.11 153.17 153.26 153.36 153.47 153.56 153.62 153.64 153.63 153.61 153.56 153.50 153.42 153.34 153.24 153.12 153.00 152.85 152.69 152.50 152.28 152.00 151.71 151.43 151.16 150.96 150.81 150.72 150.66 150.63 150.60 150.58 150.53 150.46 150.39 150.33 150.29 150.27 150.31 150.39 150.52 150.68 150.83 150.99 151.12 151.21 151.29 151.36 151.43 151.50 151.60 151.72 151.87 152.03 152.19 152.36 152.53 152.68 152.82 152.96 153.10 153.24 153.38 153.53 153.67 153.81 153.96 154.11 154.28 154.46 154.67 154.89 155.13 155.37 155.64 155.92 156.22 156.56 156.93 157.30 157.67 158.01 158.33 158.61 158.87 159.11 159.36 159.61 159.88 160.19 160.51 160.85 161.18 161.48 161.72 161.91 162.03 162.12 162.19 162.26 162.36 162.51 162.68 162.91 163.25 163.68 164.12 164.49 164.74 164.90 164.98 165.02 165.04 165.04 165.04 165.04 165.04 165.04 165.03 165.03 165.03 165.03 165.02 165.01 165.00 164.98 164.96 164.92 164.88 164.84 164.83 164.88 165.03 165.33 165.74 166.14 166.31 166.28 166.20 166.12 166.02 165.92 165.81 165.70 165.58 165.46 165.33 165.18 165.04 164.91 164.82 164.76 164.72 164.70 164.71 164.75 164.82 164.92 165.08 165.28 165.51
156.23 156.08 155.98 155.94 155.94 155.96 155.99 156.02 156.04 156.04 156.04 156.04 156.03 156.04 156.04 156.06 156.06 156.07 156.08 156.12 156.18 156.29 156.46 156.67 156.90 157.13 157.33 157.50 157.61 157.69 157.75 157.80 157.86 157.95 158.06 158.20 158.36 158.51 158.66 158.78 158.87 158.94 158.99 159.02 159.05 159.08 159.11 159.13 159.16 159.17 159.19 159.20 159.21 159.21 159.22 159.22 159.21 159.21 159.20 159.20 159.19 159.18 159.17 159.16 159.14 159.13 159.10 159.07 159.04 159.01 158.98 158.97 158.96 158.96 158.96 158.96 158.97 158.97 158.98 159.00 159.02 159.03 159.04 159.04 159.02 158.99 158.96 158.92 158.86 158.77 158.65 158.48 158.27 158.04 157.82 157.63 157.48 157.39 157.32 157.28 157.26 157.26 157.26 157.28 157.33 157.39 157.46 157.52 157.57 157.60 157.61 157.61 157.61 157.61 157.61 157.61 157.61 157.62 157.63 157.63 157.62 157.59 157.54 157.45 157.36 157.27 157.21 157.19 157.22 157.31 157.43 157.56 157.70 157.83 157.94 158.04 158.15 158.25 158.34 158.42 158.48 158.49 158.48 158.45 158.44 158.46 158.54 158.70 158.91 159.16 159.44 159.71 159.96 160.18 160.41 160.63 160.84 161.04 161.22 161.38 161.51 161.63 161.73 161.82 161.89 161.96 162.01 162.04 162.07 162.08 162.10 162.13 162.16 162.19 162.22 162.26 162.30 162.34 162.40 162.47 162.54 162.62 162.69 162.77 162.83 162.89 162.96 163.02 163.07 163.11 163.13 163.14 163.15 163.15 163.12 163.07 162.97 162.83 162.62 162.38 162.13 161.87 161.65 161.46 161.30 161.16 161.02 160.90 160.77 160.65 160.52 160.40 160.28 160.17 160.06 159.96 159.88 159.81 159.76 159.69 159.61 159.50 159.34 159.15 158.93 158.69 158.45 158.22 158.00 157.78 157.57 157.36 157.15 156.93 156.72 156.50 156.29 156.07 155.85 155.63 155.41 155.20 154.98 154.76 154.54 154.33 154.13 153.93 153.74 153.54 153.35 153.18 153.05 152.96 152.92 152.92 152.95 152.99 153.02 153.04 153.04 153.04 153.04 153.04 153.06 153.10 153.17 153.28 153.41 153.54 153.65 153.72 153.75 153.75 153.72 153.67 153.60 153.51 153.41 153.29 153.15 153.00 152.83 152.64 152.43 152.18 151.88 151.55 151.24 150.95 150.73 150.58 150.48 150.43 150.41 150.39 150.37 150.34 150.28 150.23 150.18 150.16 150.16 150.20 150.28 150.41 150.56 150.72 150.87 151.00 151.09 151.17 151.24 151.31 151.39 151.48 151.60 151.73 151.88 152.03 152.19 152.33 152.47 152.60 152.73 152.85 152.98 153.11 153.26 153.42 153.58 153.74 153.92 154.11 154.31 154.53 154.76 155.00 155.25 155.53 155.82 156.15 156.51 156.90 157.30 157.70 158.07 158.40 158.70 158.97 159.23 159.48 159.74 160.02 160.32 160.64 160.97 161.29 161.57 161.81 161.98 162.09 162.16 162.21 162.27 162.37 162.51 162.70 162.96 163.33 163.77 164.21 164.55 164.78 164.92 164.99 165.03 165.04 165.05 165.05 165.04 165.04 165.04 165.04 165.03 165.03 165.03 165.02 165.02 165.01 164.99 164.97 164.93 164.90 164.88 164.92 165.06 165.36 165.80 166.27 166.56 166.57 166.50 166.42 166.34 166.25 166.15 166.04 165.93 165.82 165.69 165.54 165.38 165.23 165.10 164.99 164.92 164.89 164.87 164.88 164.92 164.99 165.10 165.25 165.45 165.68
156.20 156.05 155.96 155.93 155.94 155.98 156.02 156.07 156.10 156.12 156.14 156.15 156.16 156.17 156.18 156.20 156.20 156.19 156.19 156.21 156.26 156.37 156.52 156.72 156.94 157.16 157.36 157.51 157.60 157.67 157.71 157.74 157.79 157.86 157.97 158.10 158.25 158.40 158.55 158.68 158.79 158.87 158.95 159.01 159.06 159.12 159.17 159.21 159.25 159.28 159.31 159.33 159.35 159.36 159.37 159.37 159.36 159.36 159.35 159.34 159.32 159.31 159.29 159.27 159.24 159.21 159.17 159.12 159.07 159.02 158.98 158.95 158.94 158.93 158.94 158.95 158.96 158.97 158.98 158.99 159.01 159.03 159.03 159.03 159.02 159.01 158.99 158.97 158.92 158.85 158.74 158.58 158.37 158.15 157.94 157.75 157.62 157.53 157.46 157.42 157.40 157.40 157.41 157.45 157.51 157.60 157.69 157.77 157.84 157.87 157.89 157.89 157.88 157.86 157.85 157.84 157.85 157.85 157.86 157.85 157.83 157.80 157.73 157.63 157.51 157.40 157.32 157.29 157.32 157.41 157.53 157.67 157.82 157.95 158.07 158.18 158.29 158.40 158.49 158.57 158.63 158.65 158.63 158.60 158.59 158.61 158.70 158.85 159.08 159.33 159.61 159.89 160.14 160.37 160.59 160.81 161.01 161.20 161.38 161.52 161.64 161.73 161.81 161.88 161.94 161.99 162.04 162.08 162.10 162.13 162.15 162.18 162.22 162.26 162.31 162.36 162.40 162.46 162.51 162.57 162.63 162.70 162.76 162.83 162.89 162.95 163.02 163.08 163.14 163.18 163.21 163.24 163.26 163.27 163.26 163.22 163.14 162.99 162.79 162.54 162.28 162.02 161.79 161.59 161.42 161.27 161.12 160.98 160.84 160.71 160.58 160.45 160.34 160.22 160.11 160.01 159.93 159.86 159.80 159.74 159.66 159.54 159.38 159.18 158.96 158.72 158.48 158.24 158.01 157.79 157.57 157.35 157.13 156.91 156.70 156.48 156.27 156.05 155.84 155.62 155.41 155.20 154.98 154.76 154.54 154.33 154.12 153.93 153.73 153.53 153.34 153.17 153.04 152.95 152.91 152.91 152.93 152.97 153.00 153.01 153.02 153.01 153.00 153.00 153.01 153.05 153.13 153.26 153.40 153.55 153.68 153.77 153.81 153.81 153.78 153.73 153.66 153.57 153.46 153.34 153.19 153.03 152.84 152.64 152.41 152.14 151.82 151.47 151.13 150.82 150.58 150.42 150.33 150.28 150.26 150.25 150.24 150.20 150.16 150.11 150.07 150.05 150.05 150.10 150.19 150.32 150.47 150.63 150.78 150.90 151.00 151.08 151.15 151.22 151.30 151.39 151.49 151.61 151.74 151.88 152.01 152.15 152.28 152.40 152.51 152.62 152.74 152.87 153.02 153.19 153.36 153.54 153.74 153.94 154.16 154.39 154.63 154.87 155.13 155.41 155.72 156.05 156.44 156.85 157.27 157.69 158.08 158.43 158.74 159.03 159.30 159.56 159.83 160.11 160.41 160.74 161.06 161.37 161.65 161.88 162.05 162.16 162.23 162.28 162.34 162.44 162.59 162.78 163.06 163.44 163.87 164.28 164.59 164.81 164.93 165.00 165.04 165.05 165.05 165.05 165.05 165.05 165.04 165.04 165.04 165.04 165.03 165.03 165.02 165.01 165.00 164.98 164.95 164.94 164.97 165.09 165.37 165.82 166.35 166.75 166.85 166.78 166.69 166.61 166.53 166.44 166.34 166.23 166.12 166.01 165.88 165.74 165.58 165.42 165.29 165.18 165.12 165.08 165.07 165.08 165.12 165.20 165.30 165.45 165.65 165.87
156.15 156.01 155.94 155.92 155.95 155.99 156.06 156.12 156.17 156.20 156.23 156.25 156.28 156.30 156.33 156.34 156.34 156.32 156.32 156.33 156.37 156.45 156.59 156.76 156.95 157.15 157.32 157.45 157.53 157.58 157.60 157.63 157.66 157.73 157.83 157.96 158.11 158.26 158.42 158.55 158.68 158.79 158.89 158.99 159.08 159.17 159.24 159.30 159.36 159.41 159.45 159.48 159.51 159.52 159.53 159.53 159.52 159.51 159.50 159.48 159.46 159.44 159.42 159.38 159.35 159.30 159.24 159.17 159.10 159.03 158.97 158.93 158.92 158.91 158.92 158.93 158.95 158.96 158.97 158.98 159.00 159.01 159.02 159.02 159.01 159.01 159.01 159.00 158.96 158.90 158.81 158.66 158.47 158.26 158.06 157.88 157.76 157.67 157.60 157.56 157.54 157.54 157.56 157.60 157.69 157.80 157.91 158.02 158.10 158.14 158.16 158.16 158.14 158.13 158.11 158.10 158.10 158.10 158.10 158.10 158.08 158.03 157.95 157.83 157.69 157.56 157.46 157.42 157.44 157.52 157.65 157.79 157.94 158.08 158.19 158.30 158.41 158.52 158.62 158.70 158.76 158.78 158.76 158.73 158.71 158.74 158.83 158.99 159.22 159.49 159.78 160.06 160.32 160.55 160.77 160.99 161.19 161.37 161.54 161.67 161.76 161.84 161.89 161.93 161.97 162.02 162.06 162.10 162.13 162.16 162.20 162.24 162.29 162.34 162.40 162.47 162.53 162.59 162.64 162.69 162.74 162.79 162.84 162.89 162.94 163.01 163.07 163.14 163.21 163.26 163.29 163.33 163.37 163.40 163.40 163.38 163.30 163.16 162.96 162.72 162.45 162.19 161.95 161.75 161.56 161.39 161.23 161.07 160.92 160.78 160.64 160.52 160.40 160.29 160.18 160.07 159.98 159.91 159.84 159.77 159.68 159.55 159.39 159.18 158.96 158.71 158.46 158.22 157.99 157.77 157.54 157.31 157.09 156.87 156.65 156.44 156.23 156.02 155.82 155.61 155.41 155.19 154.97 154.75 154.53 154.31 154.11 153.91 153.71 153.51 153.32 153.16 153.03 152.93 152.89 152.89 152.90 152.93 152.96 152.97 152.97 152.95 152.93 152.92 152.94 152.98 153.06 153.20 153.36 153.52 153.67 153.77 153.82 153.83 153.81 153.76 153.70 153.61 153.51 153.39 153.24 153.08 152.89 152.68 152.44 152.16 151.81 151.44 151.07 150.75 150.49 150.32 150.23 150.18 150.16 150.16 150.15 150.12 150.07 150.02 149.98 149.96 149.97 150.01 150.11 150.24 150.39 150.55 150.71 150.83 150.93 151.01 151.08 151.15 151.22 151.30 151.40 151.50 151.61 151.73 151.84 151.96 152.07 152.18 152.28 152.39 152.51 152.64 152.79 152.96 153.14 153.34 153.55 153.77 154.00 154.24 154.48 154.74 155.01 155.30 155.61 155.96 156.35 156.77 157.21 157.65 158.05 158.41 158.74 159.05 159.34 159.62 159.90 160.19 160.49 160.82 161.14 161.44 161.72 161.96 162.13 162.25 162.33 162.40 162.47 162.58 162.73 162.93 163.20 163.56 163.96 164.34 164.63 164.83 164.95 165.01 165.05 165.06 165.06 165.06 165.06 165.05 165.05 165.05 165.05 165.04 165.04 165.04 165.03 165.02 165.01 165.00 164.99 165.01 165.11 165.37 165.82 166.40 166.89 167.10 167.05 166.96 166.85 166.76 166.67 166.57 166.47 166.37 166.26 166.15 166.03 165.90 165.75 165.61 165.48 165.39 165.33 165.30 165.30 165.32 165.36 165.43 165.54 165.68 165.88 166.09
156.08 155.97 155.91 155.91 155.95 156.01 156.09 156.16 156.23 156.27 156.32 156.36 156.40 156.44 156.46 156.48 156.48 156.47 156.46 156.46 156.48 156.54 156.65 156.79 156.95 157.10 157.24 157.34 157.40 157.43 157.45 157.46 157.49 157.55 157.65 157.78 157.93 158.09 158.25 158.41 158.55 158.69 158.83 158.97 159.10 159.22 159.32 159.41 159.48 159.55 159.60 159.65 159.67 159.70 159.70 159.70 159.69 159.67 159.65 159.63 159.60 159.58 159.54 159.50 159.45 159.39 159.31 159.22 159.13 159.04 158.96 158.92 158.90 158.89 158.90 158.92 158.94 158.95 158.96 158.97 158.98 158.99 159.00 159.00 159.00 159.01 159.01 159.01 158.99 158.95 158.86 158.73 158.55 158.36 158.17 158.01 157.89 157.81 157.74 157.70 157.68 157.68 157.70 157.76 157.86 157.99 158.13 158.26 158.35 158.41 158.43 158.43 158.41 158.39 158.37 158.36 158.36 158.37 158.37 158.36 158.33 158.28 158.19 158.05 157.89 157.74 157.63 157.57 157.58 157.66 157.77 157.92 158.06 158.20 158.31 158.42 158.52 158.63 158.72 158.80 158.86 158.88 158.86 158.83 158.82 158.85 158.94 159.11 159.35 159.63 159.93 160.23 160.49 160.72 160.95 161.16 161.36 161.54 161.70 161.82 161.89 161.94 161.96 161.98 162.00 162.03 162.07 162.11 162.15 162.19 162.24 162.29 162.35 162.43 162.51 162.59 162.67 162.74 162.79 162.83 162.86 162.89 162.93 162.96 163.01 163.07 163.14 163.21 163.28 163.33 163.38 163.43 163.48 163.52 163.55 163.53 163.47 163.34 163.14 162.90 162.63 162.37 162.12 161.92 161.72 161.53 161.35 161.18 161.01 160.86 160.72 160.59 160.47 160.36 160.24 160.13 160.03 159.95 159.87 159.78 159.67 159.54 159.36 159.15 158.93 158.68 158.43 158.18 157.95 157.72 157.48 157.25 157.02 156.80 156.58 156.38 156.18 155.99 155.80 155.60 155.40 155.19 154.96 154.74 154.51 154.29 154.08 153.88 153.68 153.49 153.30 153.13 153.00 152.91 152.86 152.85 152.87 152.89 152.91 152.92 152.90 152.88 152.85 152.83 152.84 152.88 152.97 153.11 153.28 153.46 153.62 153.74 153.80 153.82 153.81 153.78 153.73 153.65 153.55 153.44 153.30 153.15 152.96 152.76 152.51 152.21 151.85 151.45 151.07 150.72 150.45 150.27 150.17 150.12 150.11 150.11 150.10 150.07 150.02 149.96 149.92 149.89 149.90 149.94 150.04 150.17 150.33 150.50 150.65 150.79 150.88 150.96 151.03 151.09 151.16 151.23 151.31 151.40 151.48 151.57 151.66 151.76 151.86 151.96 152.06 152.16 152.28 152.41 152.56 152.74 152.93 153.14 153.37 153.60 153.84 154.09 154.34 154.60 154.88 155.18 155.50 155.85 156.26 156.69 157.14 157.58 157.99 158.37 158.72 159.04 159.35 159.65 159.95 160.25 160.56 160.89 161.20 161.51 161.79 162.03 162.22 162.35 162.45 162.54 162.64 162.76 162.92 163.11 163.36 163.70 164.06 164.40 164.67 164.85 164.97 165.03 165.06 165.07 165.07 165.07 165.07 165.07 165.06 165.06 165.06 165.05 165.05 165.05 165.04 165.04 165.03 165.03 165.06 165.15 165.38 165.82 166.42 166.99 167.30 167.32 167.22 167.11 166.98 166.88 166.78 166.68 166.57 166.47 166.37 166.26 166.15 166.03 165.91 165.79 165.68 165.61 165.56 165.55 165.55 165.58 165.63 165.70 165.81 165.95 166.13 166.33
156.00 155.92 155.89 155.90 155.96 156.03 156.12 156.21 156.28 156.35 156.40 156.46 156.52 156.57 156.61 156.63 156.63 156.62 156.60 156.60 156.61 156.65 156.72 156.83 156.94 157.05 157.15 157.22 157.26 157.28 157.28 157.29 157.31 157.37 157.47 157.60 157.75 157.91 158.08 158.25 158.42 158.59 158.77 158.95 159.12 159.27 159.39 159.50 159.60 159.67 159.74 159.79 159.83 159.86 159.86 159.86 159.84 159.82 159.80 159.77 159.74 159.70 159.66 159.61 159.55 159.48 159.38 159.27 159.16 159.05 158.96 158.91 158.88 158.88 158.89 158.92 158.94 158.95 158.96 158.97 158.97 158.98 158.98 158.99 158.99 159.01 159.02 159.03 159.02 158.99 158.92 158.79 158.64 158.46 158.29 158.14 158.03 157.95 157.89 157.84 157.82 157.82 157.85 157.92 158.04 158.19 158.34 158.49 158.60 158.66 158.69 158.69 158.67 158.65 158.62 158.61 158.61 158.62 158.62 158.61 158.58 158.53 158.42 158.27 158.10 157.93 157.80 157.73 157.73 157.80 157.91 158.04 158.18 158.31 158.42 158.52 158.62 158.72 158.81 158.88 158.94 158.96 158.94 158.92 158.91 158.94 159.04 159.22 159.47 159.77 160.08 160.38 160.66 160.89 161.12 161.33 161.53 161.70 161.85 161.95 162.01 162.03 162.03 162.02 162.02 162.04 162.08 162.12 162.17 162.22 162.28 162.35 162.43 162.52 162.62 162.72 162.81 162.89 162.95 162.98 163.00 163.01 163.02 163.05 163.09 163.14 163.21 163.29 163.36 163.42 163.48 163.53 163.60 163.66 163.70 163.70 163.64 163.52 163.33 163.09 162.83 162.57 162.32 162.10 161.89 161.69 161.49 161.30 161.12 160.96 160.81 160.68 160.56 160.44 160.32 160.21 160.09 159.99 159.89 159.78 159.66 159.51 159.33 159.11 158.88 158.63 158.37 158.13 157.89 157.66 157.42 157.18 156.94 156.72 156.51 156.31 156.13 155.95 155.77 155.59 155.40 155.18 154.96 154.73 154.50 154.27 154.06 153.86 153.66 153.46 153.28 153.11 152.98 152.89 152.84 152.82 152.83 152.85 152.86 152.86 152.83 152.79 152.75 152.73 152.73 152.76 152.85 153.00 153.19 153.38 153.55 153.68 153.75 153.79 153.79 153.78 153.73 153.67 153.59 153.48 153.36 153.22 153.05 152.84 152.60 152.29 151.91 151.50 151.09 150.72 150.44 150.26 150.15 150.11 150.09 150.09 150.08 150.05 149.99 149.93 149.88 149.85 149.85 149.89 149.98 150.13 150.29 150.46 150.62 150.75 150.85 150.93 150.99 151.05 151.11 151.17 151.24 151.30 151.36 151.43 151.50 151.58 151.66 151.75 151.85 151.95 152.06 152.20 152.35 152.53 152.74 152.95 153.18 153.43 153.68 153.94 154.19 154.46 154.75 155.05 155.38 155.74 156.15 156.59 157.04 157.49 157.91 158.30 158.66 159.00 159.33 159.66 159.97 160.29 160.61 160.93 161.26 161.56 161.84 162.09 162.30 162.46 162.59 162.70 162.82 162.96 163.13 163.32 163.55 163.84 164.16 164.46 164.71 164.88 164.99 165.05 165.08 165.09 165.09 165.09 165.09 165.08 165.08 165.08 165.07 165.07 165.07 165.06 165.06 165.07 165.08 165.11 165.20 165.40 165.80 166.41 167.06 167.47 167.58 167.51 167.39 167.25 167.10 166.98 166.87 166.77 166.66 166.55 166.45 166.36 166.26 166.16 166.06 165.97 165.89 165.83 165.81 165.80 165.82 165.85 165.91 165.99 166.09 166.23 166.39 166.58
155.94 155.89 155.88 155.91 155.98 156.07 156.17 156.26 156.35 156.42 156.50 156.57 156.64 156.70 156.75 156.77 156.78 156.77 156.75 156.74 156.74 156.76 156.81 156.87 156.93 157.00 157.06 157.11 157.13 157.13 157.12 157.12 157.14 157.19 157.29 157.42 157.57 157.74 157.93 158.11 158.29 158.49 158.70 158.91 159.12 159.30 159.45 159.57 159.68 159.77 159.85 159.91 159.96 159.99 159.99 159.99 159.97 159.95 159.92 159.89 159.86 159.82 159.77 159.71 159.65 159.56 159.46 159.33 159.20 159.08 158.98 158.91 158.89 158.89 158.90 158.93 158.95 158.97 158.97 158.98 158.98 158.98 158.99 158.99 159.00 159.02 159.04 159.06 159.06 159.03 158.97 158.87 158.72 158.56 158.41 158.27 158.17 158.09 158.03 157.98 157.96 157.96 157.99 158.07 158.20 158.37 158.55 158.71 158.83 158.90 158.93 158.93 158.91 158.88 158.86 158.85 158.85 158.85 158.85 158.84 158.81 158.75 158.64 158.48 158.29 158.12 157.97 157.89 157.88 157.94 158.04 158.17 158.30 158.42 158.52 158.61 158.70 158.79 158.87 158.95 159.00 159.02 159.01 158.99 158.99 159.03 159.14 159.33 159.59 159.89 160.21 160.53 160.81 161.04 161.27 161.48 161.68 161.84 161.98 162.07 162.12 162.12 162.09 162.07 162.05 162.06 162.10 162.15 162.20 162.27 162.34 162.42 162.51 162.62 162.74 162.85 162.96 163.05 163.11 163.13 163.14 163.14 163.13 163.15 163.18 163.24 163.31 163.39 163.46 163.53 163.59 163.66 163.73 163.81 163.86 163.87 163.83 163.71 163.53 163.30 163.04 162.77 162.52 162.30 162.08 161.86 161.65 161.45 161.26 161.08 160.93 160.79 160.67 160.54 160.42 160.29 160.17 160.04 159.92 159.79 159.65 159.49 159.29 159.07 158.83 158.58 158.32 158.07 157.83 157.59 157.34 157.10 156.87 156.64 156.43 156.24 156.07 155.91 155.75 155.58 155.39 155.18 154.96 154.73 154.49 154.26 154.05 153.85 153.65 153.45 153.27 153.10 152.97 152.87 152.82 152.80 152.80 152.80 152.81 152.80 152.76 152.71 152.66 152.62 152.61 152.64 152.74 152.89 153.08 153.28 153.47 153.61 153.69 153.74 153.76 153.76 153.73 153.68 153.61 153.52 153.42 153.29 153.13 152.94 152.70 152.39 152.00 151.57 151.15 150.76 150.47 150.28 150.17 150.12 150.11 150.11 150.10 150.06 149.99 149.92 149.86 149.82 149.81 149.85 149.94 150.09 150.26 150.43 150.60 150.73 150.82 150.90 150.96 151.02 151.07 151.12 151.18 151.22 151.26 151.30 151.35 151.41 151.48 151.57 151.66 151.76 151.87 152.01 152.17 152.35 152.56 152.79 153.02 153.27 153.53 153.79 154.05 154.32 154.61 154.92 155.25 155.62 156.03 156.47 156.92 157.37 157.80 158.20 158.58 158.94 159.29 159.63 159.97 160.30 160.63 160.96 161.28 161.59 161.88 162.14 162.37 162.55 162.72 162.87 163.02 163.17 163.35 163.54 163.74 163.99 164.27 164.53 164.75 164.91 165.01 165.07 165.10 165.12 165.12 165.12 165.11 165.11 165.10 165.10 165.10 165.10 165.10 165.10 165.11 165.12 165.16 165.25 165.44 165.81 166.39 167.08 167.61 167.82 167.81 167.70 167.55 167.39 167.23 167.09 166.97 166.86 166.75 166.64 166.54 166.45 166.37 166.29 166.22 166.15 166.10 166.07 166.06 166.07 166.09 166.13 166.20 166.27 166.37 166.50 166.66 166.84
155.91 155.88 155.89 155.94 156.02 156.12 156.23 156.33 156.43 156.51 156.60 156.68 156.76 156.83 156.89 156.92 156.93 156.92 156.90 156.88 156.87 156.88 156.90 156.92 156.95 156.98 157.01 157.02 157.02 157.01 156.99 156.98 156.99 157.05 157.14 157.27 157.43 157.60 157.79 157.98 158.18 158.40 158.63 158.87 159.09 159.30 159.46 159.60 159.72 159.83 159.91 159.98 160.03 160.07 160.08 160.08 160.07 160.04 160.02 159.99 159.95 159.91 159.86 159.80 159.73 159.64 159.53 159.39 159.25 159.12 159.01 158.94 158.92 158.91 158.93 158.96 158.99 159.00 159.01 159.01 159.01 159.01 159.01 159.01 159.02 159.05 159.08 159.10 159.11 159.10 159.05 158.95 158.82 158.67 158.53 158.40 158.31 158.24 158.17 158.12 158.09 158.09 158.13 158.21 158.36 158.54 158.74 158.91 159.05 159.12 159.15 159.14 159.12 159.09 159.06 159.04 159.04 159.04 159.04 159.03 158.99 158.93 158.81 158.65 158.46 158.28 158.14 158.05 158.03 158.08 158.17 158.29 158.41 158.52 158.61 158.69 158.77 158.85 158.93 158.99 159.05 159.07 159.07 159.06 159.07 159.13 159.24 159.44 159.70 160.01 160.34 160.66 160.94 161.18 161.40 161.61 161.79 161.96 162.08 162.17 162.20 162.19 162.15 162.12 162.09 162.10 162.14 162.19 162.26 162.33 162.41 162.49 162.60 162.72 162.85 162.99 163.10 163.20 163.26 163.28 163.28 163.27 163.27 163.28 163.31 163.36 163.43 163.51 163.59 163.67 163.73 163.81 163.89 163.98 164.04 164.07 164.03 163.92 163.74 163.51 163.26 162.99 162.74 162.52 162.29 162.06 161.84 161.62 161.42 161.24 161.07 160.93 160.80 160.68 160.55 160.41 160.26 160.12 159.98 159.82 159.66 159.48 159.27 159.04 158.80 158.54 158.28 158.03 157.79 157.54 157.29 157.04 156.80 156.57 156.36 156.18 156.02 155.88 155.73 155.57 155.40 155.19 154.97 154.74 154.50 154.26 154.05 153.85 153.65 153.45 153.27 153.11 152.98 152.87 152.82 152.78 152.78 152.77 152.77 152.75 152.70 152.64 152.58 152.53 152.51 152.54 152.63 152.79 152.98 153.19 153.38 153.53 153.62 153.68 153.72 153.73 153.71 153.68 153.62 153.55 153.46 153.35 153.21 153.03 152.80 152.49 152.09 151.66 151.22 150.83 150.53 150.33 150.22 150.17 150.16 150.15 150.13 150.09 150.02 149.94 149.87 149.82 149.80 149.83 149.93 150.07 150.24 150.42 150.58 150.71 150.80 150.88 150.94 150.99 151.03 151.08 151.12 151.15 151.17 151.19 151.22 151.27 151.34 151.42 151.50 151.61 151.72 151.86 152.02 152.20 152.42 152.65 152.89 153.14 153.40 153.66 153.92 154.19 154.48 154.78 155.11 155.48 155.89 156.33 156.78 157.23 157.67 158.07 158.46 158.84 159.21 159.57 159.93 160.27 160.61 160.95 161.28 161.60 161.90 162.17 162.42 162.63 162.83 163.01 163.19 163.37 163.56 163.74 163.93 164.15 164.39 164.61 164.81 164.96 165.06 165.11 165.14 165.16 165.16 165.16 165.15 165.15 165.14 165.14 165.14 165.14 165.15 165.16 165.18 165.23 165.33 165.51 165.85 166.39 167.09 167.71 168.01 168.10 168.04 167.91 167.74 167.55 167.37 167.21 167.09 166.97 166.85 166.75 166.65 166.57 166.50 166.44 166.39 166.35 166.32 166.31 166.31 166.33 166.37 166.41 166.48 166.55 166.65 166.77 166.91 167.07
155.91 155.91 155.94 156.00 156.09 156.20 156.31 156.42 156.52 156.61 156.71 156.80 156.89 156.97 157.03 157.06 157.07 157.07 157.05 157.03 157.01 157.01 157.00 157.00 157.00 157.01 157.00 157.00 156.98 156.95 156.92 156.90 156.91 156.95 157.04 157.17 157.33 157.51 157.70 157.90 158.10 158.32 158.56 158.81 159.04 159.25 159.43 159.58 159.70 159.81 159.90 159.98 160.04 160.08 160.11 160.11 160.11 160.09 160.07 160.05 160.02 159.98 159.93 159.87 159.79 159.71 159.59 159.46 159.32 159.18 159.08 159.01 158.98 158.98 159.00 159.03 159.05 159.07 159.07 159.07 159.07 159.07 159.07 159.07 159.09 159.12 159.15 159.18 159.20 159.19 159.14 159.05 158.93 158.79 158.65 158.53 158.44 158.37 158.31 158.26 158.23 158.23 158.26 158.36 158.51 158.71 158.91 159.10 159.24 159.31 159.34 159.33 159.29 159.25 159.21 159.19 159.18 159.17 159.17 159.15 159.11 159.04 158.93 158.77 158.60 158.42 158.28 158.19 158.18 158.22 158.30 158.40 158.51 158.61 158.69 158.76 158.83 158.90 158.97 159.03 159.09 159.12 159.13 159.13 159.16 159.23 159.35 159.56 159.83 160.14 160.46 160.78 161.06 161.29 161.50 161.70 161.88 162.03 162.15 162.23 162.26 162.25 162.21 162.18 162.15 162.17 162.21 162.27 162.33 162.41 162.50 162.59 162.70 162.83 162.97 163.11 163.24 163.34 163.40 163.43 163.43 163.43 163.42 163.43 163.47 163.53 163.60 163.68 163.76 163.84 163.91 163.99 164.09 164.18 164.25 164.28 164.25 164.14 163.97 163.74 163.49 163.23 162.98 162.75 162.52 162.28 162.05 161.83 161.62 161.43 161.26 161.11 160.98 160.84 160.70 160.55 160.39 160.23 160.06 159.89 159.70 159.50 159.28 159.04 158.79 158.53 158.27 158.01 157.76 157.51 157.25 156.99 156.75 156.52 156.31 156.14 155.99 155.86 155.72 155.58 155.41 155.21 154.99 154.76 154.52 154.29 154.07 153.87 153.67 153.48 153.30 153.14 153.00 152.90 152.83 152.79 152.77 152.76 152.74 152.71 152.66 152.59 152.51 152.45 152.43 152.45 152.54 152.69 152.89 153.10 153.29 153.45 153.55 153.62 153.66 153.68 153.68 153.66 153.62 153.56 153.49 153.40 153.27 153.11 152.89 152.58 152.19 151.76 151.32 150.93 150.62 150.42 150.31 150.25 150.23 150.22 150.19 150.14 150.06 149.97 149.89 149.83 149.81 149.83 149.93 150.07 150.24 150.41 150.58 150.70 150.79 150.87 150.92 150.97 151.01 151.04 151.08 151.10 151.11 151.12 151.13 151.17 151.23 151.31 151.40 151.50 151.62 151.75 151.91 152.10 152.31 152.54 152.78 153.03 153.28 153.54 153.80 154.06 154.34 154.64 154.97 155.33 155.73 156.17 156.62 157.07 157.50 157.92 158.32 158.71 159.10 159.47 159.84 160.20 160.56 160.91 161.25 161.58 161.89 162.18 162.45 162.69 162.92 163.14 163.34 163.54 163.74 163.93 164.11 164.30 164.51 164.71 164.89 165.02 165.12 165.17 165.20 165.21 165.22 165.22 165.21 165.21 165.21 165.21 165.21 165.22 165.24 165.27 165.33 165.44 165.63 165.94 166.45 167.12 167.78 168.17 168.33 168.35 168.27 168.13 167.94 167.73 167.54 167.37 167.24 167.12 167.00 166.90 166.80 166.73 166.66 166.62 166.58 166.56 166.55 166.55 166.57 166.59 166.63 166.68 166.74 166.81 166.90 167.01 167.14 167.28
155.95 155.98 156.02 156.09 156.19 156.30 156.42 156.53 156.63 156.73 156.84 156.94 157.04 157.12 157.18 157.22 157.23 157.23 157.21 157.19 157.16 157.15 157.13 157.11 157.09 157.07 157.05 157.03 157.00 156.95 156.91 156.87 156.87 156.90 156.98 157.11 157.27 157.45 157.65 157.84 158.04 158.26 158.49 158.72 158.95 159.16 159.33 159.47 159.61 159.71 159.81 159.89 159.96 160.02 160.05 160.08 160.09 160.09 160.08 160.07 160.04 160.01 159.97 159.91 159.85 159.77 159.66 159.53 159.40 159.28 159.18 159.11 159.08 159.08 159.10 159.13 159.15 159.17 159.17 159.17 159.17 159.17 159.17 159.17 159.19 159.22 159.26 159.30 159.32 159.32 159.27 159.19 159.07 158.93 158.79 158.67 158.58 158.51 158.44 158.39 158.36 158.36 158.39 158.49 158.66 158.86 159.08 159.27 159.41 159.48 159.50 159.47 159.42 159.36 159.31 159.27 159.25 159.24 159.22 159.19 159.15 159.08 158.98 158.84 158.68 158.53 158.41 158.33 158.32 158.35 158.42 158.51 158.60 158.69 158.75 158.81 158.86 158.92 158.98 159.03 159.09 159.13 159.17 159.20 159.26 159.34 159.48 159.69 159.96 160.26 160.58 160.88 161.15 161.37 161.57 161.75 161.92 162.05 162.17 162.25 162.29 162.29 162.27 162.25 162.25 162.27 162.32 162.38 162.45 162.53 162.61 162.71 162.82 162.95 163.09 163.23 163.36 163.46 163.54 163.58 163.59 163.60 163.61 163.64 163.68 163.74 163.82 163.90 163.99 164.07 164.14 164.23 164.33 164.42 164.49 164.52 164.50 164.39 164.22 164.00 163.74 163.48 163.23 163.00 162.77 162.54 162.30 162.08 161.86 161.67 161.50 161.35 161.20 161.06 160.90 160.74 160.56 160.37 160.18 159.98 159.77 159.55 159.31 159.06 158.80 158.53 158.27 158.00 157.74 157.48 157.21 156.94 156.69 156.46 156.25 156.09 155.95 155.83 155.71 155.58 155.43 155.23 155.02 154.78 154.54 154.31 154.10 153.90 153.70 153.52 153.34 153.18 153.04 152.93 152.85 152.80 152.77 152.74 152.72 152.68 152.61 152.53 152.45 152.38 152.34 152.36 152.44 152.60 152.79 152.99 153.19 153.35 153.45 153.53 153.58 153.62 153.63 153.63 153.60 153.56 153.51 153.44 153.34 153.19 152.99 152.69 152.31 151.89 151.46 151.07 150.76 150.56 150.44 150.38 150.34 150.32 150.29 150.22 150.13 150.03 149.94 149.87 149.84 149.86 149.95 150.08 150.25 150.43 150.58 150.71 150.79 150.86 150.91 150.95 150.99 151.02 151.05 151.06 151.06 151.06 151.07 151.11 151.16 151.24 151.33 151.43 151.56 151.70 151.86 152.04 152.24 152.46 152.69 152.94 153.18 153.43 153.68 153.93 154.19 154.48 154.79 155.15 155.55 155.97 156.42 156.86 157.30 157.72 158.13 158.53 158.93 159.32 159.71 160.08 160.45 160.82 161.17 161.52 161.85 162.16 162.46 162.74 163.00 163.25 163.49 163.71 163.92 164.12 164.30 164.47 164.65 164.83 164.99 165.12 165.21 165.26 165.29 165.30 165.31 165.31 165.31 165.31 165.31 165.32 165.34 165.36 165.41 165.48 165.61 165.80 166.12 166.58 167.21 167.86 168.29 168.51 168.60 168.61 168.53 168.37 168.17 167.95 167.73 167.56 167.43 167.30 167.18 167.08 166.99 166.91 166.86 166.82 166.80 166.79 166.79 166.80 166.82 166.85 166.89 166.93 166.99 167.06 167.14 167.23 167.35 167.47
156.02 156.07 156.13 156.21 156.31 156.42 156.54 156.66 156.77 156.87 156.98 157.08 157.18 157.27 157.34 157.38 157.39 157.39 157.37 157.35 157.33 157.30 157.28 157.25 157.21 157.17 157.14 157.10 157.05 156.99 156.93 156.88 156.86 156.89 156.96 157.09 157.25 157.43 157.62 157.81 158.00 158.20 158.41 158.62 158.83 159.02 159.18 159.32 159.44 159.55 159.65 159.74 159.82 159.88 159.94 159.99 160.02 160.04 160.05 160.05 160.04 160.02 159.98 159.94 159.89 159.82 159.72 159.62 159.50 159.39 159.30 159.24 159.22 159.22 159.23 159.26 159.28 159.29 159.30 159.30 159.30 159.30 159.30 159.30 159.32 159.36 159.40 159.45 159.47 159.47 159.43 159.34 159.22 159.08 158.94 158.81 158.72 158.64 158.57 158.52 158.48 158.48 158.52 158.62 158.80 159.01 159.23 159.43 159.57 159.64 159.64 159.59 159.52 159.44 159.37 159.31 159.27 159.24 159.21 159.17 159.12 159.06 158.97 158.86 158.74 158.62 158.53 158.47 158.46 158.48 158.54 158.61 158.68 158.75 158.80 158.84 158.88 158.91 158.96 159.01 159.07 159.13 159.19 159.26 159.35 159.47 159.62 159.83 160.09 160.39 160.69 160.98 161.23 161.43 161.62 161.78 161.92 162.04 162.15 162.24 162.29 162.32 162.33 162.34 162.36 162.40 162.45 162.52 162.59 162.67 162.75 162.84 162.95 163.08 163.21 163.35 163.48 163.59 163.67 163.72 163.77 163.80 163.83 163.88 163.93 164.01 164.09 164.18 164.27 164.35 164.42 164.51 164.60 164.70 164.77 164.80 164.77 164.66 164.49 164.26 164.01 163.75 163.51 163.28 163.05 162.82 162.59 162.37 162.15 161.95 161.78 161.62 161.47 161.32 161.15 160.97 160.76 160.55 160.32 160.09 159.85 159.60 159.35 159.09 158.82 158.54 158.26 157.99 157.72 157.45 157.17 156.89 156.63 156.39 156.19 156.03 155.91 155.80 155.70 155.58 155.44 155.25 155.04 154.81 154.58 154.35 154.13 153.94 153.74 153.56 153.39 153.23 153.09 152.97 152.89 152.82 152.78 152.74 152.69 152.64 152.56 152.47 152.38 152.30 152.26 152.26 152.34 152.49 152.67 152.87 153.07 153.22 153.33 153.42 153.48 153.53 153.56 153.57 153.57 153.55 153.53 153.48 153.41 153.28 153.10 152.82 152.46 152.05 151.63 151.25 150.95 150.75 150.62 150.55 150.50 150.46 150.41 150.34 150.24 150.13 150.02 149.94 149.90 149.91 149.99 150.12 150.28 150.45 150.61 150.73 150.81 150.87 150.91 150.95 150.98 151.01 151.03 151.04 151.03 151.03 151.04 151.07 151.12 151.20 151.30 151.41 151.53 151.67 151.83 152.01 152.21 152.42 152.64 152.87 153.10 153.33 153.56 153.79 154.04 154.30 154.61 154.95 155.33 155.75 156.18 156.62 157.06 157.48 157.89 158.30 158.71 159.12 159.52 159.92 160.30 160.69 161.06 161.43 161.79 162.13 162.46 162.77 163.07 163.36 163.63 163.88 164.11 164.31 164.49 164.65 164.82 164.98 165.13 165.25 165.33 165.38 165.41 165.43 165.44 165.44 165.45 165.47 165.49 165.51 165.55 165.61 165.70 165.84 166.06 166.37 166.81 167.36 167.95 168.39 168.64 168.79 168.88 168.88 168.79 168.62 168.41 168.17 167.95 167.77 167.62 167.49 167.38 167.27 167.18 167.11 167.06 167.03 167.02 167.02 167.04 167.06 167.08 167.11 167.14 167.19 167.24 167.30 167.37 167.44 167.53 167.63
156.11 156.18 156.25 156.34 156.45 156.56 156.68 156.80 156.91 157.01 157.12 157.23 157.33 157.42 157.49 157.53 157.55 157.55 157.54 157.52 157.49 157.47 157.43 157.39 157.34 157.29 157.24 157.19 157.13 157.05 156.97 156.91 156.87 156.89 156.96 157.08 157.24 157.43 157.62 157.80 157.97 158.15 158.33 158.51 158.69 158.85 159.00 159.13 159.25 159.36 159.46 159.55 159.64 159.71 159.79 159.86 159.92 159.97 160.00 160.02 160.02 160.01 159.99 159.95 159.91 159.86 159.79 159.70 159.60 159.51 159.44 159.39 159.37 159.37 159.38 159.40 159.42 159.43 159.44 159.44 159.44 159.44 159.44 159.45 159.47 159.51 159.56 159.61 159.63 159.63 159.59 159.50 159.37 159.23 159.08 158.95 158.86 158.78 158.70 158.65 158.61 158.61 158.64 158.75 158.93 159.15 159.37 159.57 159.71 159.77 159.75 159.69 159.59 159.49 159.40 159.32 159.27 159.22 159.17 159.12 159.07 159.01 158.94 158.86 158.78 158.70 158.64 158.60 158.60 158.61 158.65 158.70 158.75 158.80 158.84 158.86 158.88 158.89 158.92 158.96 159.03 159.12 159.21 159.32 159.44 159.59 159.76 159.97 160.23 160.51 160.79 161.06 161.29 161.48 161.64 161.78 161.90 162.01 162.11 162.20 162.27 162.33 162.38 162.43 162.48 162.54 162.60 162.67 162.74 162.82 162.90 162.99 163.09 163.21 163.34 163.47 163.59 163.71 163.80 163.88 163.94 164.01 164.07 164.13 164.21 164.29 164.38 164.47 164.56 164.65 164.72 164.80 164.90 164.99 165.05 165.08 165.05 164.94 164.77 164.55 164.30 164.04 163.79 163.57 163.34 163.12 162.90 162.68 162.46 162.27 162.09 161.92 161.76 161.59 161.41 161.21 160.98 160.74 160.48 160.22 159.95 159.67 159.40 159.12 158.84 158.56 158.27 157.99 157.71 157.43 157.14 156.85 156.58 156.33 156.13 155.98 155.87 155.78 155.70 155.60 155.46 155.28 155.08 154.85 154.62 154.39 154.18 153.99 153.80 153.62 153.45 153.29 153.15 153.03 152.93 152.85 152.79 152.73 152.68 152.61 152.52 152.42 152.32 152.23 152.18 152.18 152.25 152.38 152.56 152.75 152.94 153.09 153.21 153.30 153.37 153.44 153.48 153.51 153.52 153.53 153.53 153.52 153.47 153.37 153.21 152.96 152.62 152.23 151.83 151.46 151.17 150.97 150.84 150.75 150.69 150.63 150.57 150.48 150.36 150.24 150.13 150.03 149.98 149.98 150.05 150.17 150.33 150.49 150.64 150.75 150.83 150.88 150.92 150.95 150.98 151.00 151.02 151.02 151.02 151.01 151.02 151.05 151.11 151.19 151.29 151.41 151.54 151.69 151.84 152.01 152.20 152.40 152.60 152.82 153.03 153.24 153.45 153.65 153.88 154.12 154.41 154.73 155.10 155.50 155.93 156.36 156.79 157.21 157.63 158.05 158.47 158.89 159.31 159.72 160.12 160.53 160.93 161.33 161.71 162.08 162.44 162.79 163.13 163.46 163.76 164.04 164.29 164.50 164.68 164.84 164.99 165.14 165.29 165.41 165.49 165.54 165.58 165.60 165.62 165.64 165.67 165.70 165.75 165.80 165.89 166.00 166.16 166.38 166.69 167.10 167.58 168.08 168.48 168.74 168.92 169.07 169.16 169.16 169.06 168.88 168.65 168.41 168.17 167.98 167.84 167.71 167.59 167.48 167.40 167.33 167.28 167.26 167.26 167.27 167.29 167.32 167.34 167.37 167.40 167.44 167.48 167.53 167.59 167.65 167.71 167.79
156.21 156.30 156.39 156.49 156.60 156.71 156.82 156.94 157.05 157.15 157.26 157.38 157.48 157.57 157.64 157.68 157.70 157.71 157.70 157.68 157.65 157.62 157.58 157.53 157.48 157.41 157.35 157.29 157.22 157.12 157.03 156.95 156.90 156.90 156.97 157.09 157.25 157.43 157.62 157.80 157.95 158.10 158.26 158.40 158.55 158.69 158.81 158.93 159.05 159.15 159.25 159.35 159.44 159.54 159.63 159.73 159.81 159.89 159.94 159.97 159.99 159.99 159.98 159.96 159.94 159.90 159.85 159.78 159.71 159.64 159.59 159.55 159.54 159.54 159.55 159.56 159.58 159.59 159.59 159.59 159.59 159.60 159.60 159.61 159.63 159.67 159.72 159.76 159.79 159.79 159.75 159.65 159.52 159.37 159.22 159.09 158.99 158.91 158.83 158.77 158.73 158.73 158.77 158.87 159.05 159.27 159.50 159.70 159.84 159.88 159.85 159.77 159.65 159.53 159.41 159.33 159.26 159.19 159.12 159.06 159.00 158.95 158.90 158.85 158.81 158.78 158.75 158.73 158.73 158.75 158.77 158.80 158.83 158.86 158.87 158.88 158.88 158.88 158.89 158.93 159.00 159.10 159.22 159.37 159.52 159.70 159.89 160.10 160.35 160.61 160.88 161.13 161.34 161.51 161.65 161.77 161.87 161.97 162.06 162.16 162.25 162.34 162.43 162.51 162.59 162.67 162.75 162.82 162.90 162.97 163.05 163.14 163.24 163.35 163.47 163.59 163.71 163.82 163.93 164.02 164.12 164.21 164.30 164.39 164.48 164.58 164.67 164.77 164.86 164.94 165.01 165.10 165.19 165.27 165.34 165.36 165.33 165.23 165.05 164.83 164.58 164.33 164.08 163.86 163.64 163.43 163.21 163.00 162.79 162.59 162.40 162.22 162.05 161.87 161.68 161.46 161.21 160.94 160.65 160.35 160.05 159.76 159.46 159.17 158.88 158.59 158.30 158.01 157.72 157.43 157.12 156.83 156.55 156.30 156.10 155.95 155.85 155.78 155.71 155.62 155.49 155.33 155.13 154.91 154.68 154.46 154.25 154.06 153.88 153.70 153.53 153.38 153.23 153.10 153.00 152.90 152.83 152.75 152.68 152.60 152.50 152.39 152.27 152.18 152.12 152.11 152.17 152.29 152.46 152.64 152.82 152.97 153.08 153.18 153.27 153.34 153.39 153.44 153.47 153.50 153.53 153.54 153.51 153.44 153.31 153.08 152.77 152.41 152.03 151.69 151.40 151.21 151.07 150.96 150.88 150.81 150.73 150.63 150.50 150.37 150.24 150.14 150.07 150.06 150.12 150.23 150.38 150.54 150.68 150.78 150.85 150.90 150.93 150.96 150.98 151.00 151.02 151.02 151.02 151.02 151.03 151.06 151.13 151.21 151.32 151.44 151.58 151.72 151.88 152.04 152.21 152.39 152.58 152.78 152.97 153.16 153.35 153.53 153.73 153.95 154.21 154.52 154.87 155.26 155.67 156.10 156.52 156.94 157.36 157.78 158.21 158.65 159.08 159.50 159.93 160.36 160.78 161.21 161.62 162.02 162.40 162.79 163.18 163.54 163.88 164.19 164.45 164.67 164.85 165.02 165.16 165.31 165.46 165.58 165.67 165.73 165.78 165.82 165.86 165.90 165.96 166.03 166.11 166.22 166.36 166.54 166.77 167.06 167.43 167.84 168.25 168.58 168.79 168.99 169.18 169.33 169.43 169.43 169.33 169.14 168.91 168.65 168.41 168.21 168.06 167.93 167.81 167.71 167.62 167.56 167.52 167.50 167.51 167.53 167.55 167.58 167.61 167.63 167.66 167.69 167.73 167.77 167.81 167.85 167.90 167.94
156.32 156.43 156.53 156.63 156.74 156.85 156.97 157.07 157.18 157.29 157.40 157.51 157.61 157.70 157.77 157.81 157.84 157.85 157.84 157.82 157.79 157.76 157.72 157.66 157.60 157.52 157.45 157.38 157.30 157.19 157.08 156.99 156.93 156.92 156.98 157.10 157.26 157.44 157.63 157.80 157.94 158.07 158.19 158.31 158.43 158.54 158.65 158.76 158.87 158.97 159.07 159.17 159.27 159.38 159.49 159.61 159.71 159.81 159.88 159.93 159.96 159.98 159.98 159.97 159.96 159.95 159.91 159.87 159.82 159.78 159.74 159.71 159.71 159.71 159.71 159.72 159.73 159.74 159.74 159.75 159.75 159.75 159.76 159.76 159.78 159.82 159.87 159.91 159.93 159.93 159.88 159.79 159.65 159.50 159.35 159.22 159.12 159.04 158.96 158.90 158.86 158.86 158.89 158.99 159.17 159.39 159.62 159.81 159.94 159.98 159.93 159.83 159.70 159.56 159.43 159.34 159.25 159.17 159.09 159.03 158.97 158.92 158.89 158.87 158.86 158.86 158.86 158.86 158.87 158.87 158.88 158.90 158.91 158.92 158.93 158.92 158.90 158.89 158.89 158.92 158.99 159.11 159.25 159.42 159.60 159.79 159.99 160.21 160.45 160.70 160.95 161.18 161.38 161.54 161.66 161.76 161.84 161.92 162.01 162.11 162.23 162.34 162.46 162.58 162.69 162.79 162.88 162.96 163.04 163.11 163.20 163.28 163.38 163.49 163.60 163.71 163.83 163.94 164.06 164.17 164.29 164.41 164.52 164.63 164.74 164.84 164.94 165.03 165.13 165.21 165.29 165.37 165.46 165.55 165.61 165.63 165.60 165.50 165.33 165.11 164.86 164.61 164.37 164.16 163.94 163.73 163.52 163.31 163.10 162.89 162.70 162.51 162.33 162.13 161.92 161.69 161.42 161.12 160.81 160.48 160.16 159.85 159.54 159.24 158.94 158.64 158.34 158.05 157.76 157.46 157.15 156.85 156.56 156.32 156.11 155.97 155.88 155.80 155.74 155.66 155.55 155.38 155.20 154.98 154.77 154.55 154.35 154.17 153.99 153.82 153.65 153.49 153.34 153.21 153.09 152.98 152.89 152.79 152.70 152.61 152.50 152.38 152.26 152.16 152.10 152.08 152.13 152.24 152.39 152.56 152.72 152.87 152.98 153.08 153.17 153.25 153.31 153.37 153.41 153.46 153.51 153.54 153.54 153.49 153.38 153.18 152.90 152.57 152.23 151.90 151.64 151.44 151.30 151.18 151.08 150.99 150.90 150.78 150.64 150.50 150.36 150.25 150.17 150.15 150.20 150.30 150.44 150.58 150.71 150.81 150.87 150.92 150.95 150.97 150.99 151.01 151.03 151.04 151.04 151.05 151.06 151.10 151.17 151.26 151.37 151.50 151.64 151.78 151.93 152.08 152.24 152.40 152.58 152.75 152.93 153.10 153.26 153.42 153.59 153.79 154.03 154.32 154.66 155.03 155.43 155.84 156.26 156.67 157.09 157.52 157.96 158.40 158.85 159.29 159.73 160.18 160.63 161.07 161.51 161.94 162.36 162.78 163.20 163.60 163.97 164.30 164.58 164.82 165.01 165.17 165.32 165.46 165.62 165.75 165.86 165.94 166.00 166.06 166.13 166.21 166.31 166.43 166.57 166.73 166.93 167.16 167.44 167.76 168.10 168.42 168.67 168.85 169.04 169.24 169.43 169.59 169.69 169.70 169.59 169.40 169.16 168.90 168.65 168.45 168.30 168.17 168.04 167.94 167.86 167.79 167.76 167.74 167.76 167.78 167.82 167.85 167.87 167.89 167.92 167.94 167.97 168.00 168.03 168.06 168.09 168.12
